# .PCD v0.7 - Point Cloud Data file format
VERSION 0.7
FIELDS x y z
SIZE 4 4 4
TYPE F F F
COUNT 1 1 1
WIDTH 174
HEIGHT 1
VIEWPOINT 0 0 0 1 0 0 0
POINTS 174
DATA ascii
-88.481186 -19.035034 -1.7886024
-88.481186 -4.0350342 -1.2522199
-73.481186 -34.035034 1.1592748
-73.481186 -19.035034 -1.7018013
-73.481186 -4.0350342 -0.35501248
-73.481186 10.964966 -1.1972661
-73.481186 25.964966 -1.8475336
-58.481186 -34.035034 -0.74273729
-58.481186 -19.035034 -1.9180033
-58.481186 -4.0350342 -1.6813036
-58.481186 10.964966 -1.624944
-58.481186 25.964966 -1.9354044
-58.481186 40.964966 -1.9961994
-43.481186 -34.035034 -1.8154761
-43.481186 -19.035034 -1.8795217
-43.481186 -4.0350342 -1.6761646
-43.481186 10.964966 -1.4672233
-43.481186 25.964966 -1.8888811
-43.481186 40.964966 -1.9754833
-28.481186 -34.035034 -1.8386894
-28.481186 -19.035034 -1.4854883
-28.481186 -4.0350342 -1.3153014
-28.481186 10.964966 -1.3289198
-28.481186 25.964966 -1.8086574
-13.481186 -34.035034 -1.6547076
-13.481186 -19.035034 -1.2211711
-13.481186 -4.0350342 -1.2192113
-13.481186 10.964966 -1.271528
-13.481186 25.964966 -1.7229893
-13.481186 40.964966 -1.707448
1.5188141 -34.035034 -1.4113314
1.5188141 -19.035034 -1.1161437
1.5188141 -4.0350342 -1.0460547
1.5188141 10.964966 -1.2055076
1.5188141 25.964966 -1.5771902
1.5188141 40.964966 -1.058403
16.518814 -49.035034 -1.9652318
16.518814 -34.035034 -1.867758
16.518814 -19.035034 -1.5944192
16.518814 -4.0350342 -0.77886593
16.518814 10.964966 -1.3474833
16.518814 25.964966 -1.5682162
16.518814 40.964966 -1.5022399
16.518814 55.964966 4.5032372
31.518814 -49.035034 -1.8546349
31.518814 -34.035034 -1.8822868
31.518814 -19.035034 -1.7089869
31.518814 -4.0350342 -1.1524364
31.518814 10.964966 -1.2056571
31.518814 25.964966 -1.5665135
31.518814 40.964966 -1.4781028
31.518814 55.964966 1.8625076
46.518814 -49.035034 -1.8219892
46.518814 -34.035034 -1.810465
46.518814 -19.035034 -1.8336711
46.518814 -4.0350342 -1.7172723
46.518814 10.964966 -1.2228514
46.518814 25.964966 0.24958855
46.518814 40.964966 1.3263944
46.518814 55.964966 1.7470714
61.518814 -64.035034 -1.9296236
61.518814 -49.035034 -1.8054029
61.518814 -34.035034 -1.7256466
61.518814 -19.035034 -1.7094973
61.518814 -4.0350342 -1.657355
61.518814 10.964966 -0.58027923
61.518814 25.964966 1.844049
61.518814 40.964966 2.3062944
61.518814 55.964966 2.8942201
76.518814 -64.035034 -1.9208292
76.518814 -49.035034 -1.8122479
76.518814 -34.035034 -1.6384345
76.518814 -19.035034 -1.7281072
76.518814 -4.0350342 -1.8180132
76.518814 10.964966 -0.12679034
76.518814 25.964966 1.9190217
76.518814 40.964966 2.3634064
76.518814 55.964966 2.2688644
91.518814 -79.035034 -1.6513029
91.518814 -64.035034 -1.8061029
91.518814 -49.035034 -0.80687034
91.518814 -34.035034 -1.6195586
91.518814 -19.035034 -1.7340655
91.518814 -4.0350342 -1.73238
91.518814 10.964966 -0.57477349
91.518814 25.964966 1.6940253
91.518814 40.964966 2.4493973
91.518814 55.964966 2.9285152
91.518814 70.964966 4.5074754
106.51881 -94.035034 -1.9888357
106.51881 -79.035034 -1.7661221
106.51881 -64.035034 -1.2606795
106.51881 -49.035034 -0.79839307
106.51881 -34.035034 -1.4068719
106.51881 -19.035034 -1.294835
106.51881 -4.0350342 -1.051666
106.51881 10.964966 -0.29176766
106.51881 25.964966 1.6426699
106.51881 40.964966 2.6324377
106.51881 55.964966 3.1022358
106.51881 70.964966 2.3708594
121.51881 -94.035034 -1.9452659
121.51881 -79.035034 -1.7936578
121.51881 -64.035034 -0.76623976
121.51881 -49.035034 -0.47951025
121.51881 -34.035034 -0.52952981
121.51881 -19.035034 -0.29774293
121.51881 -4.0350342 -0.25623029
121.51881 10.964966 0.27375785
121.51881 25.964966 2.0173333
121.51881 40.964966 2.4918749
121.51881 55.964966 2.2631283
121.51881 70.964966 2.2377207
136.51881 -94.035034 -1.8530439
136.51881 -79.035034 0.095382869
136.51881 -64.035034 0.73261869
136.51881 -49.035034 0.67465007
136.51881 -34.035034 0.67540616
136.51881 -19.035034 0.59710467
136.51881 -4.0350342 0.47489896
136.51881 10.964966 1.4801134
136.51881 25.964966 2.7701693
136.51881 40.964966 2.1562512
136.51881 55.964966 1.3357171
136.51881 70.964966 1.7634455
136.51881 85.964966 3.0541172
151.51881 -79.035034 1.9781736
151.51881 -64.035034 2.3251221
151.51881 -49.035034 2.0293202
151.51881 -34.035034 2.3012662
151.51881 -19.035034 1.8637216
151.51881 -4.0350342 1.3008628
151.51881 10.964966 2.087852
151.51881 25.964966 3.0580337
151.51881 40.964966 2.626718
151.51881 55.964966 2.3188012
151.51881 70.964966 1.9687842
151.51881 85.964966 2.9689996
166.51881 -34.035034 3.5097165
166.51881 -19.035034 2.8717999
166.51881 -4.0350342 2.2828524
166.51881 10.964966 2.5462234
166.51881 25.964966 3.4250915
166.51881 40.964966 3.1389835
166.51881 55.964966 2.7257054
166.51881 70.964966 3.0162797
166.51881 85.964966 2.0391872
181.51881 -19.035034 3.9210823
181.51881 -4.0350342 3.5945334
181.51881 10.964966 3.6410189
181.51881 25.964966 3.853781
181.51881 40.964966 3.5592229
181.51881 55.964966 3.114388
181.51881 70.964966 2.6429381
181.51881 85.964966 3.3130596
181.51881 100.96497 4.6221929
196.51881 -4.0350342 4.4575524
196.51881 10.964966 4.0385494
196.51881 25.964966 4.2589159
196.51881 40.964966 3.6300955
196.51881 55.964966 3.2353005
196.51881 70.964966 2.3367786
196.51881 85.964966 1.8231012
211.51881 10.964966 4.3206444
211.51881 25.964966 4.7277393
211.51881 40.964966 4.1145949
211.51881 55.964966 3.0462444
211.51881 70.964966 2.714416
211.51881 85.964966 4.6363511
226.51881 25.964966 3.5575919
226.51881 40.964966 4.1851826
226.51881 55.964966 3.5428472
226.51881 70.964966 3.163013
241.51881 55.964966 4.2980967
