# .PCD v0.7 - Point Cloud Data file format
VERSION 0.7
FIELDS x y z
SIZE 4 4 4
TYPE F F F
COUNT 1 1 1
WIDTH 105
HEIGHT 1
VIEWPOINT 0 0 0 1 0 0 0
POINTS 105
DATA ascii
-119.76306 -45.280106 -1.7590224
-119.76306 -30.280106 -1.5014994
-104.76306 -45.280106 -1.2953085
-104.76306 -30.280106 -1.2915982
-104.76306 -15.280106 -1.2106299
-89.763062 -75.280106 -0.65183866
-89.763062 -60.280106 -0.74612445
-89.763062 -45.280106 -0.69735622
-89.763062 -30.280106 -1.0568005
-89.763062 -15.280106 -1.0987396
-89.763062 -0.28010559 -0.89007843
-74.763062 -195.28011 -1.5376523
-74.763062 -180.28011 -1.4332416
-74.763062 -120.28011 -0.41938198
-74.763062 -105.28011 -0.69023222
-74.763062 -90.280106 -0.62435508
-74.763062 -75.280106 -0.5969705
-74.763062 -60.280106 -0.6055581
-74.763062 -45.280106 -0.60521501
-74.763062 -30.280106 -0.62379473
-74.763062 -15.280106 -1.2459358
-74.763062 -0.28010559 -0.76902777
-59.763062 -210.28011 -0.58030546
-59.763062 -195.28011 -1.9378322
-59.763062 -180.28011 -1.2904892
-59.763062 -165.28011 -1.0632485
-59.763062 -150.28011 -0.47069857
-59.763062 -135.28011 -0.62299299
-59.763062 -120.28011 -1.1448438
-59.763062 -105.28011 -0.73608404
-59.763062 -90.280106 -0.78063703
-59.763062 -75.280106 -1.0116513
-59.763062 -60.280106 -0.7365877
-59.763062 -45.280106 -0.66432679
-59.763062 -30.280106 -0.71519607
-59.763062 -15.280106 -1.053913
-59.763062 -0.28010559 -0.95929575
-44.763062 -210.28011 -0.11935194
-44.763062 -195.28011 -1.8241543
-44.763062 -180.28011 -1.1381915
-44.763062 -165.28011 -1.0542463
-44.763062 -150.28011 -0.80804604
-44.763062 -135.28011 -0.89186555
-44.763062 -120.28011 -1.447167
-44.763062 -105.28011 -1.6811445
-44.763062 -60.280106 -0.71669173
-44.763062 -45.280106 -0.82984513
-44.763062 -30.280106 -0.86465037
-44.763062 -15.280106 -1.0385425
-29.763062 -210.28011 -0.088883698
-29.763062 -195.28011 -1.7708225
-29.763062 -180.28011 -1.2325261
-29.763062 -165.28011 -0.94781572
-29.763062 -150.28011 -1.0194696
-29.763062 -135.28011 -1.1500595
-29.763062 -120.28011 -1.4631462
-29.763062 -60.280106 -0.99428719
-29.763062 -45.280106 -0.90892488
-29.763062 -30.280106 -1.0722708
-29.763062 -15.280106 -1.0927898
-29.763062 -0.28010559 -1.2146993
-14.763062 -210.28011 0.23954898
-14.763062 -195.28011 -1.6376545
-14.763062 -180.28011 -1.1888176
-14.763062 -165.28011 -1.1149333
-14.763062 -150.28011 -1.2660216
-14.763062 -135.28011 -1.157305
-14.763062 -60.280106 -1.1871234
-14.763062 -45.280106 -1.1835351
-14.763062 -30.280106 -1.0749363
-14.763062 -15.280106 -1.2057959
-14.763062 -0.28010559 -1.120029
0.23693848 -210.28011 0.72078985
0.23693848 -195.28011 0.4360469
0.23693848 -180.28011 -1.5095971
0.23693848 -165.28011 -1.3484997
0.23693848 -150.28011 -1.5055311
0.23693848 -60.280106 -1.5395633
0.23693848 -45.280106 -1.4382221
0.23693848 -30.280106 -1.4882901
0.23693848 -15.280106 -1.7011194
0.23693848 -0.28010559 -1.8349169
15.236938 -195.28011 1.106195
15.236938 -180.28011 -1.778071
15.236938 -165.28011 -1.6492211
15.236938 -150.28011 -1.9573128
15.236938 -60.280106 -1.7773395
15.236938 -45.280106 -1.6068379
15.236938 -30.280106 -1.6210394
15.236938 -15.280106 -1.6585189
15.236938 -0.28010559 -1.7641153
30.236938 -180.28011 -1.6408447
30.236938 -165.28011 -0.87610507
30.236938 -150.28011 -1.3533846
30.236938 -60.280106 -1.8490567
30.236938 -45.280106 -1.7199041
30.236938 -30.280106 -1.7244723
30.236938 -15.280106 -1.7382872
30.236938 -0.28010559 -1.7928808
45.236938 -45.280106 -1.8501652
45.236938 -30.280106 -1.8478506
45.236938 -15.280106 -1.7830694
45.236938 -0.28010559 -1.9839636
60.236938 -30.280106 -1.9976723
60.236938 -15.280106 -1.8764009
