# .PCD v0.7 - Point Cloud Data file format
VERSION 0.7
FIELDS x y z
SIZE 4 4 4
TYPE F F F
COUNT 1 1 1
WIDTH 180
HEIGHT 1
VIEWPOINT 0 0 0 1 0 0 0
POINTS 180
DATA ascii
-85.482735 -0.06565094 2.2386851
-85.482735 14.934349 -1.8459435
-85.482735 29.934349 -0.95436889
-70.482735 -0.06565094 -0.39277431
-70.482735 14.934349 -1.6623378
-70.482735 29.934349 -0.1305058
-70.482735 44.934349 -1.1972661
-70.482735 59.934349 -1.818622
-55.482735 -15.065651 -1.9024148
-55.482735 -0.06565094 -1.3823458
-55.482735 14.934349 -1.9163377
-55.482735 29.934349 -1.6635804
-55.482735 44.934349 -1.6163691
-55.482735 59.934349 -1.7948529
-40.482735 -15.065651 -1.9380803
-40.482735 -0.06565094 -1.7239875
-40.482735 14.934349 -1.7644764
-40.482735 29.934349 -1.6268586
-40.482735 44.934349 -1.6521287
-40.482735 59.934349 -1.9732199
-40.482735 74.934349 -1.9961994
-25.482735 -15.065651 -1.8343486
-25.482735 -0.06565094 -1.5711298
-25.482735 14.934349 -1.3620205
-25.482735 29.934349 -1.3709662
-25.482735 44.934349 -1.5319397
-25.482735 59.934349 -1.9571561
-25.482735 74.934349 1.8103902
-10.482735 -15.065651 -1.607994
-10.482735 -0.06565094 -1.2172204
-10.482735 14.934349 -1.1950426
-10.482735 29.934349 -1.234861
-10.482735 44.934349 -1.3786447
-10.482735 59.934349 -1.707448
4.5172653 -30.065651 -1.9974475
4.5172653 -15.065651 -1.704443
4.5172653 -0.06565094 -1.0848745
4.5172653 14.934349 -1.0246432
4.5172653 29.934349 -1.2218945
4.5172653 44.934349 -1.665231
4.5172653 59.934349 -1.4033105
19.517265 -45.065651 -1.8868979
19.517265 -30.065651 -1.8894097
19.517265 -15.065651 -1.826166
19.517265 -0.06565094 -1.392174
19.517265 14.934349 -0.9997049
19.517265 29.934349 -1.5677234
19.517265 44.934349 -1.6530174
19.517265 59.934349 -0.95362133
19.517265 74.934349 4.5128074
34.517265 -45.065651 -1.7823828
34.517265 -30.065651 -1.8591335
34.517265 -15.065651 -1.7985659
34.517265 -0.06565094 -1.7092693
34.517265 14.934349 -1.1242752
34.517265 29.934349 -1.362178
34.517265 44.934349 -1.6503576
34.517265 59.934349 -0.3457903
34.517265 74.934349 1.8300557
49.517265 -60.065651 -1.8984004
49.517265 -45.065651 -1.8349582
49.517265 -30.065651 -1.7861741
49.517265 -15.065651 -1.7585768
49.517265 -0.06565094 -1.7923555
49.517265 14.934349 -1.2797575
49.517265 29.934349 -0.9388023
49.517265 44.934349 0.069990806
49.517265 59.934349 1.9677217
49.517265 74.934349 2.2470067
64.517265 -75.065651 -1.9946402
64.517265 -60.065651 -1.9168766
64.517265 -45.065651 -1.7773852
64.517265 -30.065651 -1.6665316
64.517265 -15.065651 -1.6861552
64.517265 -0.06565094 -1.6575394
64.517265 14.934349 -0.92446065
64.517265 29.934349 1.5224007
64.517265 44.934349 1.858361
64.517265 59.934349 1.7906662
79.517265 -90.065651 -1.8284589
79.517265 -75.065651 -1.6796416
79.517265 -60.065651 -1.8091967
79.517265 -45.065651 -1.3850113
79.517265 -30.065651 -1.5994941
79.517265 -15.065651 -1.7804234
79.517265 -0.06565094 -1.8093168
79.517265 14.934349 0.86143583
79.517265 29.934349 2.1943526
79.517265 44.934349 2.4638634
79.517265 59.934349 3.0039859
94.517265 -90.065651 -1.8395876
94.517265 -75.065651 -1.2140508
94.517265 -60.065651 -0.90756261
94.517265 -45.065651 -1.3990386
94.517265 -30.065651 -1.6232851
94.517265 -15.065651 -1.6308436
94.517265 -0.06565094 -1.554063
94.517265 14.934349 1.0965497
94.517265 29.934349 2.2455075
94.517265 44.934349 2.4077659
94.517265 59.934349 2.890105
109.51727 -105.06565 -1.9438428
109.51727 -90.065651 -1.8029671
109.51727 -75.065651 -0.76278955
109.51727 -60.065651 -0.51341158
109.51727 -45.065651 -0.73168361
109.51727 -30.065651 -0.89047271
109.51727 -15.065651 -0.82691491
109.51727 -0.06565094 -0.54721403
109.51727 14.934349 1.1972907
109.51727 29.934349 2.3460894
109.51727 44.934349 2.9132504
109.51727 59.934349 3.206635
124.51727 -90.065651 1.2041253
124.51727 -75.065651 1.2561922
124.51727 -60.065651 0.63637418
124.51727 -45.065651 0.27970698
124.51727 -30.065651 0.10906515
124.51727 -15.065651 -0.096283853
124.51727 -0.06565094 0.36571643
124.51727 14.934349 1.9135013
124.51727 29.934349 2.7445936
124.51727 44.934349 2.4043822
124.51727 59.934349 2.0324349
139.51727 -90.065651 3.2453556
139.51727 -75.065651 2.8298669
139.51727 -60.065651 1.8888575
139.51727 -45.065651 1.8061869
139.51727 -30.065651 1.071528
139.51727 -15.065651 0.81960267
139.51727 -0.06565094 2.0993736
139.51727 14.934349 2.6459196
139.51727 29.934349 2.3528605
139.51727 44.934349 2.0359559
139.51727 59.934349 2.2744412
154.51727 -60.065651 4.0962729
154.51727 -45.065651 3.0050688
154.51727 -30.065651 1.8210162
154.51727 -15.065651 1.6947217
154.51727 -0.06565094 2.7275999
154.51727 14.934349 2.7306423
154.51727 29.934349 2.2106209
154.51727 44.934349 1.2680795
154.51727 59.934349 2.7554986
169.51727 -45.065651 3.7592342
169.51727 -30.065651 2.8594706
169.51727 -15.065651 2.5545988
169.51727 -0.06565094 3.2671299
169.51727 14.934349 3.1055999
169.51727 29.934349 2.6711488
169.51727 44.934349 1.588997
169.51727 59.934349 2.4957376
184.51727 -45.065651 3.9865201
184.51727 -30.065651 3.9650311
184.51727 -15.065651 3.7948091
184.51727 -0.06565094 3.8489301
184.51727 14.934349 3.4564345
184.51727 29.934349 2.9349928
184.51727 44.934349 3.0162797
184.51727 59.934349 2.208828
199.51727 -30.065651 4.0074506
199.51727 -15.065651 2.2612071
199.51727 -0.06565094 4.178215
199.51727 14.934349 3.6314263
199.51727 29.934349 3.2028861
199.51727 44.934349 2.6429381
199.51727 59.934349 3.3130596
214.51727 -15.065651 4.780508
214.51727 -0.06565094 4.5321994
214.51727 14.934349 3.8854949
214.51727 29.934349 2.3367786
214.51727 44.934349 1.8231012
214.51727 59.934349 4.4440327
229.51727 -0.06565094 3.5575919
229.51727 14.934349 4.0283446
229.51727 29.934349 3.0462444
229.51727 44.934349 3.6804729
244.51727 -0.06565094 4.7296867
244.51727 14.934349 3.4497347
244.51727 29.934349 3.3962932
