# .PCD v0.7 - Point Cloud Data file format
VERSION 0.7
FIELDS x y z
SIZE 4 4 4
TYPE F F F
COUNT 1 1 1
WIDTH 63
HEIGHT 1
VIEWPOINT 0 0 0 1 0 0 0
POINTS 63
DATA ascii
-132.92973 -37.97538 -1.814135
-132.92973 -22.97538 -0.67139244
-117.92973 -37.97538 -1.4905287
-117.92973 -22.97538 -1.402154
-102.92973 -37.97538 -1.2152348
-102.92973 -22.97538 -1.3839746
-102.92973 -7.9753799 -1.0529722
-87.929733 -67.97538 -0.75531626
-87.929733 -52.97538 -0.5121907
-87.929733 -37.97538 -0.6822753
-87.929733 -22.97538 -1.1368763
-87.929733 -7.9753799 -0.70695895
-87.929733 7.0246201 -0.69726378
-72.929733 -67.97538 -0.63454163
-72.929733 -52.97538 -0.61883873
-72.929733 -37.97538 -0.59499544
-72.929733 -22.97538 -0.82685608
-72.929733 -7.9753799 -1.1356564
-72.929733 7.0246201 -0.76902777
-57.929733 -67.97538 -0.77144927
-57.929733 -52.97538 -0.64813507
-57.929733 -37.97538 -0.70497304
-57.929733 -22.97538 -0.89354986
-57.929733 -7.9753799 -1.3928902
-42.929733 -67.97538 -0.69555694
-42.929733 -52.97538 -0.76432878
-42.929733 -37.97538 -0.82984513
-42.929733 -22.97538 -0.97444254
-42.929733 -7.9753799 -1.2454681
-27.929733 -67.97538 -0.87289089
-27.929733 -52.97538 -1.0083675
-27.929733 -37.97538 -0.93464375
-27.929733 -22.97538 -1.0989738
-27.929733 -7.9753799 -1.1671095
-27.929733 7.0246201 -1.0322098
-12.929733 -52.97538 -1.2316996
-12.929733 -37.97538 -1.1131003
-12.929733 -22.97538 -1.2136736
-12.929733 -7.9753799 -1.2571068
-12.929733 7.0246201 -1.0828737
2.0702667 -52.97538 -1.4250077
2.0702667 -37.97538 -1.5496713
2.0702667 -22.97538 -1.603436
2.0702667 -7.9753799 -1.7847942
2.0702667 7.0246201 -0.67862421
17.070267 -67.97538 2.8801632
17.070267 -52.97538 -1.6295801
17.070267 -37.97538 -1.658295
17.070267 -22.97538 -1.6285799
17.070267 -7.9753799 -1.7351503
17.070267 7.0246201 -1.9404815
32.070267 -52.97538 -1.7379248
32.070267 -37.97538 -1.7077777
32.070267 -22.97538 -1.7231432
32.070267 -7.9753799 -1.7236569
32.070267 7.0246201 -1.7928808
47.070267 -52.97538 -1.757571
47.070267 -37.97538 -1.8507276
47.070267 -22.97538 -1.8338702
47.070267 -7.9753799 -1.9253813
47.070267 7.0246201 -0.65044934
62.070267 -37.97538 -1.9976723
62.070267 -22.97538 -1.8764009
