# .PCD v0.7 - Point Cloud Data file format
VERSION 0.7
FIELDS x y z
SIZE 4 4 4
TYPE F F F
COUNT 1 1 1
WIDTH 1425
HEIGHT 1
VIEWPOINT 0 0 0 1 0 0 0
POINTS 1425
DATA ascii
-79.839531 -10.467746 -0.69365251
-88.51165 -8.9977694 -0.70528114
-89.288147 -11.099333 -0.74247932
-85.856339 -2.932162 -0.7211988
-83.87706 -3.4859428 -0.89579225
-72.700188 -111.16654 -0.9102515
-72.715263 -100.59821 -0.69023222
-69.796967 -98.740013 -0.71289688
-72.042427 -103.26471 -0.77254951
-70.524796 -102.9305 -0.77768058
-71.91301 -104.49847 -0.80318487
-70.669594 -104.21721 -0.81724775
-72.057419 -104.71308 -0.85919762
-72.369461 -94.590088 -0.61893988
-73.873383 -96.327057 -0.61986369
-73.153473 -96.389595 -0.62731224
-72.31086 -89.744514 -0.62976664
-72.404999 -96.174774 -0.63034713
-71.379707 -96.067902 -0.63216019
-71.465424 -94.570747 -0.63668466
-70.246002 -95.87751 -0.63815832
-74.80719 -89.497025 -0.64513165
-72.853416 -95.455002 -0.64780104
-70.431046 -97.257668 -0.65549403
-71.995659 -95.310661 -0.65762669
-75.356125 -88.303185 -0.71856457
-71.293488 -95.913513 -0.77489942
-75.238823 -91.384483 -0.81441849
-72.264214 -84.71254 -0.61373442
-77.239334 -80.031754 -0.61604416
-77.152664 -79.797539 -0.61804032
-73.357597 -81.109924 -0.62360197
-76.066689 -85.712387 -0.62435508
-74.045624 -81.183899 -0.62644297
-73.442444 -85.048325 -0.63246334
-72.45211 -81.058983 -0.63286
-72.346588 -80.882706 -0.64431274
-75.314667 -85.446251 -0.64901656
-71.092369 -86.784119 -0.65158486
-74.637596 -78.152184 -0.66416675
-76.206177 -85.263603 -0.6665085
-75.626945 -85.488083 -0.67255044
-76.93576 -79.278648 -0.67506903
-74.710915 -83.238472 -0.68360704
-74.925346 -80.049263 -0.71699274
-75.265602 -78.234848 -0.7183789
-76.124016 -87.066269 -0.72170347
-73.256165 -85.858116 -0.72737902
-74.989487 -84.57502 -0.72921771
-74.357643 -80.64994 -0.76342762
-75.934349 -86.34024 -0.77441901
-75.927185 -87.050583 -0.77445412
-73.367958 -69.898132 -0.57981008
-71.56012 -69.691765 -0.58306396
-70.138275 -70.757713 -0.58498842
-74.842155 -75.47538 -0.58554578
-72.505203 -69.168045 -0.59352684
-75.937042 -77.376846 -0.59969771
-77.351181 -69.878021 -0.60967571
-71.070206 -67.808479 -0.61174887
-72.760345 -68.380234 -0.62267512
-72.463112 -70.294464 -0.62733454
-78.728813 -70.039757 -0.62759835
-74.61409 -69.719437 -0.63454163
-76.772011 -69.870201 -0.63455349
-74.624962 -69.365707 -0.63639897
-69.79464 -68.871269 -0.65593415
-74.271423 -68.928452 -0.66574889
-74.352219 -74.135124 -0.66983169
-71.695816 -69.094078 -0.67119277
-73.172523 -69.061424 -0.67733616
-71.430771 -68.903603 -0.68464822
-70.275032 -68.813118 -0.70021647
-71.013306 -69.492012 -0.74350041
-70.562843 -69.196022 -0.74445474
-70.832031 -70.122375 -0.75685203
-71.481705 -70.49971 -0.77281237
-75.815842 -68.481201 -0.86146623
-73.353699 -57.864204 -0.58925629
-78.702377 -58.298992 -0.59052074
-76.912621 -59.839733 -0.5917505
-70.957924 -59.362793 -0.59604424
-71.313026 -57.840881 -0.60657829
-71.020226 -65.260986 -0.61280441
-72.43045 -66.675476 -0.61295009
-69.843506 -65.379272 -0.614057
-75.71759 -59.923698 -0.61879265
-71.523613 -58.228542 -0.61985481
-78.190514 -58.575993 -0.6314429
-70.82814 -58.304638 -0.63870192
-78.218216 -59.443459 -0.64285415
-75.627602 -58.919273 -0.67970562
-71.45282 -58.792519 -0.70745236
-77.1595 -57.895226 -0.73483276
-71.537834 -59.633884 -0.76872557
-76.316658 -67.705795 -0.80203861
-71.44722 -59.620449 -0.80881494
-79.222054 -61.363468 -0.84187126
-79.402397 -57.99741 -0.85498899
-79.511391 -61.335983 -0.85532844
-70.866882 -58.907982 -0.9886288
-77.264282 -55.97456 -0.59236038
-74.670052 -52.913048 -0.59293664
-77.91993 -57.664314 -0.59379703
-71.888489 -48.87838 -0.59495586
-78.396393 -54.584957 -0.59505641
-72.127861 -51.351803 -0.59527326
-73.555832 -50.753254 -0.59547269
-70.264229 -56.233398 -0.59548634
-72.78727 -52.747932 -0.59682006
-70.759666 -53.25066 -0.59776211
-71.286209 -54.269341 -0.59794909
-77.312675 -52.23241 -0.59950066
-71.065506 -51.21106 -0.6029253
-77.596931 -53.469921 -0.60342503
-72.126633 -52.593094 -0.60414106
-71.193817 -53.608936 -0.60555804
-71.664536 -51.860256 -0.60698849
-77.664612 -57.253551 -0.60735548
-73.297234 -54.161549 -0.60892123
-74.704422 -50.103527 -0.60911721
-73.319191 -53.271114 -0.61128676
-70.550636 -48.399563 -0.61360222
-70.737305 -51.345451 -0.61848009
-73.698799 -53.263988 -0.61856097
-69.808601 -51.194031 -0.61883873
-76.242989 -54.239223 -0.61915296
-71.657776 -50.904785 -0.62146086
-71.070648 -50.822361 -0.62348759
-78.841484 -52.306187 -0.62523842
-72.794838 -53.380718 -0.63459355
-69.854584 -53.746677 -0.63462657
-75.800163 -54.293495 -0.63589561
-72.551437 -48.646671 -0.64371169
-75.664986 -54.502289 -0.64372844
-69.916893 -54.143112 -0.64900821
-70.192032 -53.639603 -0.64905143
-73.263824 -53.983498 -0.64969146
-71.665466 -52.876743 -0.65568447
-71.506149 -52.325638 -0.66526616
-71.085327 -52.331505 -0.67241633
-71.695633 -51.346161 -0.67500043
-71.240654 -51.746269 -0.67516863
-75.069092 -52.330105 -0.67784989
-71.136353 -53.301655 -0.69256735
-76.829834 -57.016586 -0.6947788
-70.2537 -51.750805 -0.69549853
-72.303848 -49.345573 -0.72340786
-72.990021 -55.109539 -0.76249129
-70.17746 -48.406719 -0.82830757
-76.281441 -57.28006 -0.83457983
-75.07415 -39.070694 -0.5803768
-72.267746 -41.287807 -0.58185548
-73.920471 -38.846882 -0.58428055
-76.460182 -37.884201 -0.58782822
-72.551598 -41.61113 -0.5901171
-72.960396 -38.504379 -0.59335363
-73.268173 -38.221664 -0.59349573
-73.245407 -37.832664 -0.59912604
-74.20816 -38.407402 -0.59927297
-71.453133 -42.954227 -0.60521501
-72.198524 -41.78363 -0.60747397
-69.941269 -47.630039 -0.60879993
-73.545105 -42.687378 -0.61746562
-75.621819 -42.880817 -0.62542558
-79.765099 -39.301525 -0.62707472
-79.144333 -38.431095 -0.63139582
-71.019867 -38.421349 -0.63328028
-70.820061 -41.773651 -0.64301246
-73.334763 -43.045601 -0.64371103
-75.287094 -40.300838 -0.65145481
-76.716522 -38.757961 -0.66836661
-69.876015 -47.336189 -0.71822357
-76.212212 -42.868187 -0.72949314
-79.601105 -27.830284 -0.58435321
-70.265793 -36.179066 -0.58514434
-73.483971 -37.055882 -0.5863052
-79.22541 -27.873909 -0.58959335
-79.69706 -37.130939 -0.59272611
-70.625282 -34.196793 -0.5949955
-70.22258 -32.404736 -0.60443097
-79.313126 -37.024513 -0.60566175
-73.188057 -34.764538 -0.60570186
-69.776535 -36.963333 -0.60814178
-71.885765 -34.766293 -0.61106932
-73.605415 -36.584591 -0.61278266
-70.330811 -35.821556 -0.6164847
-69.963768 -30.535784 -0.6193108
-78.624313 -36.980885 -0.62087446
-73.561165 -37.726559 -0.62379473
-75.6138 -37.072277 -0.62712544
-72.018036 -34.610123 -0.63111031
-70.52906 -35.423672 -0.64943773
-70.672729 -35.772137 -0.65006888
-71.757957 -36.278851 -0.65014559
-77.263008 -27.865377 -0.67531282
-69.774704 -36.034397 -0.68742788
-69.891968 -30.464634 -0.69478971
-73.115128 -36.264278 -0.73575753
-78.515564 -29.137323 -0.78218633
-78.926086 -36.264149 -0.78774351
-71.520462 -24.078917 -0.70249182
-78.912422 -23.177385 -0.70785159
-74.672401 -27.412212 -0.71099865
-75.219536 -25.475784 -0.71247637
-77.876274 -24.59137 -0.72908753
-73.679504 -22.370708 -0.7370922
-77.7929 -26.698042 -0.74368429
-77.193535 -27.036203 -0.74382448
-77.482979 -22.376282 -0.76693839
-77.347145 -26.973944 -0.80183709
-77.982628 -23.543924 -0.82685608
-79.593056 -26.819866 -0.86102444
-79.763481 -22.445333 -0.89850837
-78.118912 -23.575779 -0.95045555
-76.419998 -18.122019 -0.95130116
-79.009506 -18.077621 -0.99101794
-76.541512 -17.38909 -0.82908762
-75.848656 -17.137583 -0.93025106
-72.834122 -16.407726 -0.97171557
-77.418327 -13.562328 -0.97429585
-78.208809 -7.7481227 1.019729
-79.326317 2.9415293 -0.76902777
-68.836746 -210.23788 -0.78301388
-68.629471 -211.41418 -0.80371445
-68.708023 -211.66408 -0.86576116
-69.291954 -207.25516 -0.40430182
-61.939156 -174.91473 -0.85721052
-62.678867 -118.012 -0.93414462
-63.015938 -116.39016 -0.91801119
-60.384792 -116.83098 -0.92291427
-59.838875 -114.8838 -0.9245224
-63.701504 -116.60051 -0.93163127
-64.271881 -115.20656 -0.93791986
-62.183357 -115.34779 -0.93821621
-62.323414 -115.77415 -0.94705552
-60.728504 -116.03712 -0.96075314
-59.826733 -115.26974 -0.96518701
-62.692001 -116.73117 -0.97170889
-61.46907 -116.22688 -0.98786461
-61.926689 -100.44925 -0.67267621
-63.150887 -97.976418 -0.68118608
-64.654816 -98.685089 -0.72605085
-62.33725 -98.679207 -0.72789013
-69.244659 -99.952606 -0.72796857
-63.233776 -98.002632 -0.73057091
-63.28545 -99.124054 -0.74231607
-63.426586 -98.971077 -0.76757252
-67.75399 -98.202621 -0.77934062
-64.225052 -98.002609 -0.81628948
-66.551056 -101.16508 -0.82544601
-68.609795 -98.187912 -0.84295201
-68.871277 -93.82225 -0.68468618
-68.622849 -96.565804 -0.69390482
-69.172783 -97.184479 -0.6942569
-69.393707 -97.698814 -0.69832486
-64.517555 -96.826698 -0.69837427
-63.296112 -96.227982 -0.7031278
-63.146118 -94.733574 -0.7043069
-69.619308 -97.276947 -0.7056675
-68.729561 -97.289711 -0.72286385
-63.132065 -95.85743 -0.72441912
-64.238319 -95.566078 -0.72695887
-64.479568 -91.443756 -0.72983158
-63.494164 -94.437744 -0.73123634
-60.940384 -95.724663 -0.73173702
-63.784863 -97.647461 -0.73547256
-63.123219 -93.226212 -0.73939109
-62.570068 -95.42614 -0.73971337
-63.29594 -92.930557 -0.77245897
-60.057205 -92.859535 -0.77894479
-66.185738 -92.235237 -0.78398728
-63.909737 -95.416367 -0.78517163
-63.918793 -97.31958 -0.78676486
-67.337631 -97.333031 -0.81193841
-64.063599 -97.334152 -0.88393205
-64.19722 -81.707466 -0.76678061
-67.214912 -78.89138 -0.80374569
-59.834568 -84.849129 -0.80525112
-62.433399 -85.222382 -0.81247067
-68.331604 -79.321609 -0.85597622
-61.676022 -85.56105 -0.8688277
-61.620174 -79.084785 -0.8931855
-62.124386 -84.813194 -0.8974216
-62.501297 -83.185493 -0.94481254
-67.255981 -68.502289 -0.75678712
-66.118736 -68.351959 -0.75746399
-65.848671 -67.781822 -0.76619297
-61.689953 -68.116982 -0.78006625
-68.258888 -69.369072 -0.81281698
-63.383301 -68.139305 -0.82669252
-60.78896 -77.342026 -0.94766521
-66.726448 -65.186974 -0.70551103
-65.104248 -66.129272 -0.70564795
-64.169113 -64.057884 -0.70594352
-68.128128 -63.567574 -0.70760059
-61.947865 -65.678459 -0.71078044
-64.786484 -64.191391 -0.71633083
-61.281189 -62.466953 -0.71751535
-63.168385 -66.136635 -0.71763295
-64.28775 -66.709877 -0.72015786
-63.42569 -63.277435 -0.72029829
-61.208412 -63.21978 -0.72279221
-64.371178 -67.707527 -0.72780138
-66.301704 -66.412994 -0.73658776
-64.080521 -64.708862 -0.74511659
-63.201057 -67.350159 -0.7576952
-62.309166 -67.665718 -0.76281816
-61.954208 -66.103416 -0.77144927
-62.249359 -63.873215 -0.7724936
-65.695824 -65.321396 -0.78722811
-61.74852 -63.507187 -0.79733086
-60.36879 -64.444061 -0.81130642
-64.742821 -63.756538 -0.83396256
-60.505558 -64.832306 -0.83520877
-62.6493 -63.195503 -0.84186041
-64.309418 -65.37896 -0.84807926
-62.295109 -64.007965 -0.88925445
-60.742744 -65.060318 -0.94794953
-68.641357 -52.388084 -0.68452847
-69.671875 -52.605854 -0.68487978
-66.836388 -50.819618 -0.69135737
-68.717293 -52.815399 -0.69229084
-67.351936 -50.67556 -0.69945598
-69.535385 -53.484566 -0.70354652
-69.162636 -51.699734 -0.70580322
-69.151054 -51.237129 -0.7060222
-69.282524 -53.671051 -0.71082693
-66.330193 -50.583862 -0.71442401
-63.319626 -48.205421 -0.72099161
-68.194283 -51.661697 -0.72272879
-66.75441 -57.709938 -0.72371668
-62.718395 -49.329998 -0.72469133
-69.679306 -51.747818 -0.72933561
-67.731445 -51.509617 -0.7317062
-68.055153 -53.445911 -0.73671478
-61.979641 -54.969582 -0.74011558
-63.227577 -52.435326 -0.74718344
-67.029839 -51.389149 -0.77629918
-67.13961 -52.267429 -0.77767545
-67.831421 -52.345348 -0.81689006
-65.526657 -51.096329 -0.88382292
-66.977898 -52.895161 -0.9216758
-65.067558 -53.51379 -0.97271448
-64.968796 -41.78017 -0.63542157
-65.676788 -40.409306 -0.63602263
-61.872688 -46.070057 -0.63804847
-65.024239 -41.784306 -0.64896572
-60.284275 -39.217686 -0.65322459
-60.490131 -38.003643 -0.65467042
-60.778435 -39.268303 -0.6554504
-62.807644 -46.090179 -0.65635884
-62.783821 -38.908966 -0.66056973
-68.547424 -47.429798 -0.67820531
-63.150486 -39.503227 -0.68277812
-59.793022 -38.081364 -0.70497304
-69.255234 -42.933105 -0.72861904
-63.182129 -31.516531 -0.67431247
-68.553429 -30.730324 -0.67601591
-62.317699 -29.760422 -0.69248223
-63.162231 -31.488373 -0.69881755
-63.456951 -36.402668 -0.7147674
-68.124298 -35.323952 -0.71680343
-63.621426 -30.747425 -0.74469382
-69.136932 -36.421684 -0.75066549
-64.110405 -34.176071 -0.75191712
-65.125137 -34.439491 -0.75402164
-68.333855 -34.524902 -0.77123129
-68.045166 -36.226509 -0.77236158
-66.712807 -35.778515 -0.78857952
-66.523636 -36.740856 -0.80610448
-60.521778 -29.878075 -0.88349062
-65.466103 -35.431576 -0.90269876
-63.802608 -22.024002 -0.74340725
-63.305199 -22.791462 -0.74346954
-65.481758 -22.482531 -0.74723822
-62.11013 -22.471315 -0.75334883
-67.00811 -25.007486 -0.75534517
-60.123291 -23.017612 -0.77024662
-62.530552 -21.881742 -0.79128247
-60.673061 -21.531342 -0.79605103
-60.769554 -22.511824 -0.80215847
-62.760864 -22.753143 -0.82239729
-61.173115 -21.933254 -0.87433755
-62.580662 -23.208433 -0.92963988
-68.936394 -15.341921 -0.69982779
-62.841873 -7.4065251 -0.95929575
-55.670128 -208.06714 -0.58030546
-54.140167 -206.52322 -0.52320719
-54.84127 -191.00278 -0.98751152
-51.842213 -180.63838 -0.99634635
-54.25079 -182.86136 -0.99853241
-54.779377 -177.35344 -0.97679901
-54.181629 -163.67078 -0.90351379
-53.1745 -156.59357 -0.47069857
-50.734055 -138.60255 -0.62963963
-51.650566 -136.37488 -0.76421177
-59.364777 -119.93607 -0.96171856
-51.807877 -123.69975 -0.96933323
-51.993046 -122.6682 -0.97879916
-57.72451 -118.15106 -0.98961103
-52.836788 -114.77634 -0.98404372
-55.692184 -113.54756 -0.98772049
-55.889507 -117.72783 -0.99072653
-54.456478 -112.61437 -0.99394053
-57.163853 -115.67257 -0.9998371
-56.710884 -97.869324 -0.82755959
-53.935898 -97.422417 -0.8044216
-59.469593 -79.885384 -0.99209732
-54.986687 -62.240108 -0.70282662
-54.307819 -63.187275 -0.70558041
-51.542625 -63.131004 -0.70994866
-56.800793 -65.246002 -0.71352959
-54.773857 -63.991009 -0.72128701
-56.443165 -67.475006 -0.74812424
-53.988472 -62.679764 -0.75158775
-58.864006 -63.811947 -0.76113313
-56.82724 -64.5914 -0.77528495
-58.933754 -64.023407 -0.78250015
-57.289787 -62.079124 -0.78642213
-50.278816 -62.598671 -0.81800556
-58.59623 -66.994926 -0.84663951
-50.670029 -62.758499 -0.86932164
-52.405674 -62.909698 -0.87017703
-58.528091 -65.618546 -0.87635565
-50.917633 -61.682186 -0.88370842
-57.592484 -56.225559 -0.70972866
-51.872013 -55.402363 -0.73514867
-51.781353 -53.426907 -0.75370055
-52.924034 -54.02269 -0.75593954
-55.011917 -48.87199 -0.81228524
-57.16626 -49.163563 -0.8538425
-55.193291 -48.491333 -0.85774326
-58.159618 -51.011791 -0.87941813
-58.415497 -50.978569 -0.97699988
-57.810722 -38.863808 -0.68849337
-52.90303 -38.967644 -0.69295001
-55.310806 -46.668579 -0.70306045
-55.935341 -38.88446 -0.71029377
-56.461212 -40.203342 -0.74610174
-55.485916 -46.01088 -0.75485104
-56.95211 -46.515156 -0.75884497
-58.85841 -38.746925 -0.79757345
-57.18745 -39.37735 -0.80024999
-58.886875 -38.338871 -0.80736428
-54.727131 -43.987347 -0.81081295
-56.380486 -39.921799 -0.81093961
-57.712486 -39.076809 -0.83591288
-56.838573 -39.801258 -0.85483581
-51.178463 -37.086758 -0.75735682
-57.442169 -30.010946 -0.75768465
-54.285122 -31.655157 -0.76226056
-52.143448 -37.167076 -0.76834404
-58.679745 -31.865089 -0.77142739
-56.033794 -28.895163 -0.78341925
-58.251892 -29.712961 -0.7859844
-53.61058 -29.461618 -0.79466999
-51.028282 -34.572201 -0.80530739
-50.981598 -34.551426 -0.80572397
-55.992878 -28.871193 -0.81322753
-50.664761 -37.443802 -0.82049876
-51.077503 -35.816303 -0.8378669
-53.958344 -27.800489 -0.84359008
-54.430313 -30.279579 -0.85065544
-54.6292 -31.64455 -0.85267293
-57.143444 -29.002451 -0.92981368
-53.066853 -28.819725 -0.96747005
-52.848942 -20.563501 -0.89354986
-56.219715 -22.24996 -0.89479446
-53.6772 -20.051056 -0.8956213
-55.245781 -21.072124 -0.89719069
-52.337372 -19.515518 -0.90379679
-49.857761 -19.68745 -0.91340297
-50.399952 -24.281042 -0.92179787
-51.727825 -20.18605 -0.93425632
-52.646301 -19.629871 -0.9393298
-53.342735 -20.827856 -0.94837248
-53.312885 -23.063141 -0.95319325
-52.40144 -21.154909 -0.96173567
-51.492584 -19.433687 -0.96529102
-52.840607 -18.763121 -0.9810167
-53.336342 -19.313156 -0.98605746
-51.959663 -19.942455 -0.98653996
-39.793579 -198.35461 -0.80231863
-40.862141 -192.2614 -0.99459118
-41.437927 -186.42352 -0.99196088
-43.281544 -184.16498 -0.99246752
-39.817238 -183.11604 -0.99336112
-48.226387 -183.43552 -0.99360371
-42.552635 -183.51535 -0.9944253
-42.990768 -187.519 -0.99684596
-46.104015 -185.99185 -0.99847728
-43.120846 -184.96985 -0.99994999
-46.494717 -177.7038 -0.89908254
-46.316734 -171.43628 -0.90130079
-46.5429 -168.76422 -0.92585182
-46.487831 -168.76511 -0.94839197
-48.817814 -175.99222 -0.97161436
-49.728378 -165.8551 -0.88482273
-40.910416 -147.82291 -0.67932868
-42.17054 -140.71303 -0.85832465
-44.024151 -138.19261 -0.86708426
-42.360016 -145.31303 -0.86887079
-40.586155 -139.66397 -0.87261862
-40.280952 -140.30139 -0.88310981
-41.409264 -138.82433 -0.88582772
-44.79361 -139.88249 -0.88975507
-47.755081 -139.21744 -0.89098561
-44.500748 -139.15384 -0.89941341
-41.981457 -139.89557 -0.90493715
-43.711277 -139.12199 -0.90629911
-41.649403 -139.21863 -0.9106335
-43.226925 -139.21356 -0.91300076
-45.270267 -139.2574 -0.91450214
-41.033688 -138.10291 -0.91886634
-39.781239 -139.998 -0.93822503
-45.58836 -139.39476 -0.99016392
-46.849056 -137.2365 -0.93875426
-47.679134 -135.64481 -0.95637023
-43.010826 -122.01998 -0.98518008
-47.611721 -113.59202 -0.96291023
-40.780163 -59.046295 -0.68279541
-39.826939 -60.617542 -0.69555688
-43.111084 -59.860367 -0.69651157
-40.574398 -60.930164 -0.69981313
-41.685631 -61.690754 -0.70434147
-40.728226 -61.184711 -0.70602065
-42.208664 -60.289963 -0.71669173
-39.800549 -59.887287 -0.73704958
-40.782887 -59.739376 -0.73779678
-48.369984 -62.838501 -0.75084114
-41.04821 -59.820221 -0.75604862
-49.368832 -62.193913 -0.75966525
-44.01482 -61.565105 -0.92036664
-41.024632 -63.319813 -0.99250597
-41.844997 -51.086964 -0.80471557
-45.771519 -50.238529 -0.82071072
-44.150661 -52.643658 -0.82588959
-43.486839 -50.988808 -0.91090524
-43.918568 -50.720322 -0.92272508
-42.059586 -51.25914 -0.92536569
-45.554218 -52.801189 -0.9646433
-45.469368 -52.780781 -0.98663247
-41.064651 -42.816479 -0.8292473
-40.595093 -41.732285 -0.82977116
-42.826176 -44.701237 -0.83437639
-40.264114 -43.874004 -0.8380661
-39.822456 -43.67688 -0.83948392
-43.91098 -44.233864 -0.84017944
-44.826141 -43.798923 -0.84668607
-41.501087 -43.551796 -0.85181361
-43.213772 -44.344006 -0.86540413
-40.773228 -42.208752 -0.8702715
-43.134411 -43.759872 -0.87562615
-41.323563 -42.379642 -0.87752402
-41.477741 -41.888412 -0.92246515
-43.838333 -44.548843 -0.93251348
-43.38855 -42.634335 -0.93356001
-39.979012 -41.120235 -0.98386639
-44.163475 -34.885464 -0.82474041
-40.028423 -32.904671 -0.82586062
-39.775368 -29.106897 -0.83241516
-40.149597 -28.112076 -0.83603728
-41.495316 -36.240002 -0.83914697
-41.209621 -27.813709 -0.85539675
-49.467537 -29.249126 -0.85578269
-46.371304 -37.352295 -0.85737991
-44.545261 -33.567005 -0.8610577
-49.447281 -37.546017 -0.86111164
-46.659939 -34.5494 -0.8692289
-41.494678 -34.285206 -0.87206358
-40.078686 -28.579184 -0.87636381
-48.789616 -29.309498 -0.89908081
-45.668953 -29.506374 -0.95247042
-40.55225 -28.552458 -0.95250797
-41.564148 -32.187607 -0.96395582
-41.729076 -26.888023 -0.89470375
-42.943058 -24.654003 -0.91215789
-49.519356 -19.044512 -0.91297227
-47.817917 -19.840429 -0.91309434
-39.847221 -17.798159 -0.91355276
-41.408756 -18.297041 -0.91540855
-41.419281 -25.125631 -0.92101562
-44.394241 -20.564554 -0.92505914
-43.868938 -18.28603 -0.93042988
-41.447418 -18.824909 -0.93235832
-41.300617 -25.917204 -0.93994373
-39.786804 -24.693188 -0.94801617
-39.919559 -18.633261 -0.94989598
-45.156334 -18.475954 -0.95006526
-48.141865 -18.708067 -0.95491874
-49.454788 -19.012573 -0.95791799
-41.327145 -24.38604 -0.96521455
-41.070332 -19.120932 -0.9757601
-39.982857 -17.299398 -0.94773662
-30.996216 -208.79414 -0.28188306
-34.262768 -197.8667 -0.40299711
-37.646896 -198.90671 -0.51268673
-34.211349 -197.97092 -0.65368807
-35.237095 -198.50055 -0.76209319
-35.277615 -198.32965 -0.83301347
-33.491337 -192.05373 -0.98822641
-34.263218 -194.65306 -0.98932368
-37.464611 -192.81879 -0.99490941
-32.238472 -185.73633 -0.96234435
-36.384445 -183.10442 -0.96641326
-39.729103 -182.53781 -0.96774167
-34.793266 -183.56047 -0.97034127
-34.966988 -184.66051 -0.97116816
-39.758904 -184.3932 -0.97289914
-35.301651 -183.76071 -0.97561049
-33.316017 -184.78363 -0.97607958
-32.68264 -187.54393 -0.97815877
-39.461441 -185.44945 -0.98541081
-37.449196 -185.56271 -0.98601735
-37.90818 -184.32217 -0.98889297
-37.05164 -186.12816 -0.98938769
-34.772827 -186.36827 -0.99022198
-36.886497 -184.80127 -0.99274582
-39.685371 -186.1384 -0.99311531
-35.552856 -187.25652 -0.99699801
-38.52631 -178.92229 -0.99737287
-34.399078 -186.29543 -0.99853504
-33.909607 -186.64243 -0.99918151
-37.555603 -170.33969 -0.80745637
-38.088692 -173.04016 -0.84966189
-37.102489 -177.44817 -0.86250132
-32.521084 -177.04005 -0.88551199
-38.185009 -172.99748 -0.90118581
-37.649208 -174.43109 -0.94771528
-31.931286 -161.7932 -0.7982803
-31.257275 -155.8779 -0.78262186
-32.716076 -149.77292 -0.78367996
-29.77973 -154.40652 -0.78856069
-30.778082 -153.06543 -0.78931344
-30.212595 -148.77438 -0.78966737
-30.798874 -149.25267 -0.80699855
-30.717728 -155.7198 -0.81315494
-30.475815 -157.5063 -0.81940621
-30.358074 -154.21231 -0.81971264
-31.21525 -149.85239 -0.82524359
-29.877695 -148.72754 -0.82840699
-30.80126 -148.73732 -0.82881814
-30.270382 -156.6572 -0.83158779
-30.212639 -155.87529 -0.84422588
-30.181131 -157.43726 -0.84446371
-32.222755 -155.83389 -0.85219681
-29.810553 -157.33023 -0.88310558
-31.811588 -156.138 -0.88371438
-30.621809 -156.73305 -0.88634539
-30.975256 -157.15283 -0.92700613
-34.935116 -141.05786 -0.93805748
-34.094803 -139.48885 -0.93878055
-35.790028 -139.95441 -0.94003463
-36.086472 -141.12305 -0.94523019
-37.477459 -139.89282 -0.94632703
-30.852249 -143.06717 -0.94651634
-34.768509 -140.86929 -0.94688129
-37.628029 -139.80557 -0.95065033
-33.572853 -142.10181 -0.95173061
-32.718494 -144.72058 -0.95174646
-31.666576 -142.34036 -0.96017402
-32.758415 -144.17271 -0.96240276
-30.537687 -144.98972 -0.96592081
-32.372646 -141.76738 -0.96767545
-34.862385 -140.23412 -0.97451288
-30.621696 -142.81711 -0.97544014
-30.979427 -145.49773 -0.97597784
-35.444092 -142.90276 -0.97776693
-31.447563 -142.81833 -0.9782728
-34.104385 -141.38539 -0.97862178
-30.942825 -143.69037 -0.97957951
-32.31881 -58.134148 -0.74027717
-38.717495 -59.387741 -0.74302107
-37.311649 -60.706924 -0.74774981
-32.751278 -58.284569 -0.74869424
-29.782408 -59.845764 -0.75831276
-29.804373 -58.218803 -0.76315564
-35.819145 -60.295975 -0.7638973
-31.626795 -60.298717 -0.78208822
-30.23867 -60.293625 -0.7885201
-32.176643 -59.738041 -0.78910649
-29.813055 -60.075459 -0.79859042
-30.854029 -60.274879 -0.79867995
-38.090263 -59.711971 -0.81240606
-37.359482 -61.94508 -0.8399756
-30.713934 -59.17271 -0.84086078
-31.711229 -60.534008 -0.84099501
-31.363983 -63.353722 -0.84222978
-35.003986 -57.98513 -0.90075225
-34.229996 -56.470409 -0.79616016
-39.756409 -51.702667 -0.79783273
-31.549044 -56.846844 -0.80474097
-30.811638 -56.846596 -0.81256348
-30.772038 -56.429482 -0.8162272
-37.957642 -52.182518 -0.83480453
-32.377365 -49.322041 -0.83894324
-34.50893 -57.426098 -0.84481448
-32.01059 -55.842129 -0.85529321
-30.032551 -56.944736 -0.8597641
-29.78751 -57.269676 -0.86071777
-29.91997 -56.902443 -0.87232256
-30.20277 -54.908287 -0.9458639
-30.050423 -57.649548 -0.99428719
-34.075684 -40.482761 -0.83765942
-34.144054 -38.828476 -0.83823746
-33.419853 -40.009056 -0.83856404
-29.810568 -38.467163 -0.83995432
-33.399361 -44.515274 -0.84053725
-39.276867 -41.280216 -0.84251195
-39.660191 -41.758984 -0.84998679
-31.696724 -46.700062 -0.85215765
-29.8895 -41.661957 -0.861269
-38.321339 -39.015736 -0.8638249
-39.655499 -44.290722 -0.87105113
-30.30719 -39.729012 -0.8721832
-33.892246 -39.733379 -0.87550879
-30.202492 -38.893524 -0.88192534
-38.904202 -41.416779 -0.88827753
-39.306019 -44.701057 -0.89206153
-31.03961 -37.849937 -0.9004063
-33.239159 -37.904701 -0.90104711
-30.837666 -42.566925 -0.90564752
-32.225994 -38.505844 -0.90892488
-30.808252 -39.381859 -0.91282094
-30.208265 -39.213478 -0.91980064
-39.756268 -44.671391 -0.92141104
-30.651018 -38.926014 -0.95167917
-31.740702 -40.344185 -0.95365739
-30.236618 -40.257122 -0.96663398
-36.459061 -43.947964 -0.98206246
-37.945919 -31.793602 -0.83013129
-39.048969 -29.05982 -0.83759636
-35.809738 -29.097942 -0.85441315
-38.441631 -33.045982 -0.86465037
-29.943083 -37.756599 -0.86879808
-31.535412 -33.101196 -0.86888796
-31.25433 -34.444763 -0.89235967
-35.693714 -28.052757 -0.8937723
-39.050037 -28.062553 -0.90229845
-31.045355 -33.656387 -0.91192055
-31.527447 -31.354965 -0.9162429
-33.123325 -28.615316 -0.91882759
-31.436949 -28.178583 -0.92181951
-39.055084 -28.8188 -0.97228104
-30.836617 -28.559515 -0.97403592
-35.482086 -27.898983 -0.99108148
-33.645863 -22.397795 -0.91048878
-38.179688 -25.141071 -0.92389715
-37.168682 -24.354858 -0.92605573
-38.390675 -27.175924 -0.92659163
-37.270481 -27.39336 -0.9368239
-34.849186 -24.187698 -0.93807417
-35.716824 -22.901028 -0.93916088
-37.532753 -18.196793 -0.94467163
-39.152599 -24.861607 -0.94627392
-36.908237 -18.007843 -0.94939023
-37.448509 -18.65341 -0.9499684
-34.886799 -27.106699 -0.95046759
-32.791317 -22.550783 -0.95162159
-39.000141 -25.298651 -0.95963448
-39.082096 -27.04809 -0.95986938
-34.00668 -23.043793 -0.96303827
-33.765408 -23.895266 -0.96800977
-39.726807 -25.167215 -0.97444254
-32.785221 -18.317053 -0.99206853
-35.808979 -16.38398 -0.9081791
-37.81004 -17.57093 -0.9151572
-39.043839 -17.097708 -0.91677749
-39.460567 -17.764141 -0.92713833
-37.357056 -16.012495 -0.97249448
-33.325645 -3.0479813 -0.98939663
-28.103601 -208.0894 -0.35540941
-21.131466 -206.01651 0.23954898
-20.981855 -206.15445 0.23913069
-26.46904 -201.38275 0.23552349
-28.415009 -201.14937 0.22074351
-28.594034 -198.62241 0.15847334
-22.657917 -198.25423 0.11976311
-26.608007 -199.16814 0.10804387
-28.570019 -199.34157 0.098555192
-25.549309 -198.40167 -0.027358068
-22.697821 -198.04713 -0.067669883
-28.35202 -201.75647 -0.097250074
-24.926401 -200.99081 -0.22667439
-24.184896 -197.96489 -0.32167277
-28.965347 -201.11694 -0.49560389
-28.950596 -201.11011 -0.54522341
-20.497343 -192.89316 -0.95060122
-20.5672 -191.26961 -0.95096701
-23.691391 -189.34735 -0.9568671
-29.24839 -191.6994 -0.95711154
-22.701262 -193.23468 -0.95983481
-26.028484 -188.55615 -0.96027821
-22.677362 -189.69177 -0.9678306
-29.394556 -190.47386 -0.98456722
-24.057344 -189.5955 -0.99293208
-28.61665 -191.06087 -0.99548113
-20.259726 -185.6064 -0.93392467
-29.654842 -185.17433 -0.93938208
-27.751135 -182.44408 -0.94023448
-21.056255 -181.40717 -0.94096851
-27.35454 -180.36169 -0.94408315
-20.520132 -187.75229 -0.94477201
-22.565706 -186.17587 -0.94480282
-26.320898 -187.14552 -0.94513726
-29.422544 -185.89098 -0.94568276
-27.46265 -184.44684 -0.94611287
-29.144499 -184.05927 -0.94885588
-20.197924 -186.27547 -0.95082778
-28.904602 -184.71684 -0.95319718
-20.235584 -186.79768 -0.95511138
-22.185616 -185.30017 -0.9551326
-21.718679 -185.80835 -0.95628017
-24.217449 -185.65224 -0.9568826
-28.760475 -183.45961 -0.95765579
-27.199131 -184.99512 -0.95994848
-29.695168 -184.62482 -0.96021503
-24.510963 -185.51178 -0.96194065
-29.367279 -183.81297 -0.96220642
-28.845139 -184.09676 -0.96466827
-29.083603 -186.09454 -0.96630377
-25.291878 -186.73512 -0.96818954
-26.394468 -186.51396 -0.96892321
-26.415907 -186.16838 -0.97123623
-21.339943 -182.93246 -0.97529602
-23.958061 -181.69019 -0.99003196
-21.259785 -176.67751 -0.86855906
-27.598003 -176.06377 -0.86897933
-23.205915 -174.73755 -0.8699488
-21.723753 -172.36902 -0.87321967
-21.904211 -174.29187 -0.87327623
-21.673883 -173.27551 -0.87446547
-22.851116 -171.2663 -0.8745423
-21.37237 -175.19511 -0.87625837
-24.097042 -174.78049 -0.87703025
-21.725975 -174.75545 -0.88630331
-23.05434 -171.30052 -0.89107025
-21.410683 -174.75385 -0.90431952
-21.692631 -169.76736 -0.90752178
-21.469757 -172.0143 -0.91696858
-20.203499 -176.22011 -0.91924679
-22.117031 -174.67552 -0.93431932
-26.821829 -158.6414 -0.89521772
-21.308174 -158.79243 -0.89589179
-25.70525 -158.85895 -0.90462458
-26.460932 -158.96712 -0.91007364
-24.919022 -158.76143 -0.913688
-26.99095 -159.12862 -0.91435349
-21.731365 -158.8483 -0.91634363
-26.51079 -157.85355 -0.92228192
-26.699251 -158.44183 -0.9224267
-20.384659 -159.14949 -0.92462969
-20.391531 -158.41206 -0.92558992
-24.77858 -157.78084 -0.93215871
-24.741734 -158.23073 -0.93548077
-20.623781 -167.3698 -0.9406414
-24.069706 -158.39125 -0.94372094
-22.499083 -159.10895 -0.94781572
-25.162474 -158.11781 -0.95400983
-19.791983 -161.43599 -0.9541049
-22.29912 -158.93523 -0.95520997
-23.123781 -158.63469 -0.97496688
-19.996788 -157.98314 -0.97987789
-20.116707 -157.9406 -0.98152739
-21.997276 -156.97891 -0.9754312
-25.282003 -156.74193 -0.97546017
-23.271753 -153.93123 -0.97576338
-23.680525 -154.34503 -0.97833389
-22.8487 -157.52103 -0.97976047
-25.259739 -157.21805 -0.98149478
-21.831573 -153.28632 -0.98182619
-19.848665 -156.09319 -0.98347086
-23.730022 -155.83772 -0.98420793
-21.740746 -154.03568 -0.98586345
-22.210358 -153.86743 -0.98650968
-20.939644 -156.83243 -0.99041599
-22.180635 -157.50644 -0.99063271
-26.180285 -155.98331 -0.99291784
-20.961405 -157.13303 -0.99378794
-21.607954 -154.99969 -0.99730915
-22.89344 -154.66371 -0.99764216
-24.978064 -157.1593 -0.9987641
-29.540129 -143.6915 -0.98683441
-22.529438 -144.70222 -0.98729122
-27.636679 -145.2083 -0.99109316
-28.873648 -58.67297 -0.89707041
-27.511221 -59.212456 -0.90195972
-23.721176 -59.825893 -0.90649641
-26.217808 -59.756325 -0.92305052
-22.257107 -58.587681 -0.93258286
-20.152819 -58.966469 -0.97358155
-22.957956 -59.12389 -0.9752596
-28.759254 -55.449356 -0.91435421
-25.016314 -55.220055 -0.92619592
-28.566727 -55.643848 -0.92930943
-24.744316 -53.962509 -0.93174279
-29.41905 -57.290829 -0.93617117
-26.668055 -53.744694 -0.93730742
-29.228409 -56.398994 -0.94708693
-21.989172 -55.175625 -0.94837493
-29.660587 -54.938866 -0.94890469
-22.622721 -55.113354 -0.95034009
-27.811003 -56.508167 -0.95134985
-21.219896 -53.908379 -0.95165408
-21.585859 -51.1021 -0.96027154
-24.834545 -52.734646 -0.96445918
-23.473186 -57.433205 -0.97178531
-19.972767 -54.702774 -0.97627378
-25.662025 -55.778564 -0.99206561
-26.000166 -40.64875 -0.80483311
-28.667099 -40.29343 -0.81248826
-29.255827 -39.30743 -0.81618875
-25.103598 -47.603474 -0.82826638
-26.84939 -47.676926 -0.82983845
-23.713257 -47.133522 -0.83037454
-29.715063 -39.202686 -0.85467625
-28.200628 -43.269272 -0.85574824
-24.802618 -47.58952 -0.85656232
-29.354656 -43.261536 -0.86271572
-27.109409 -47.754421 -0.87392575
-26.776403 -42.066956 -0.8920756
-27.318401 -39.02486 -0.90065455
-24.496061 -43.322113 -0.90646827
-23.097004 -47.060513 -0.90662843
-29.349289 -45.136337 -0.9097622
-29.062439 -40.505608 -0.90989113
-29.614868 -44.232834 -0.91176128
-24.901217 -40.387695 -0.91742414
-26.336493 -47.595276 -0.93113941
-29.200771 -42.755787 -0.93464375
-27.815786 -41.269135 -0.95482737
-27.405085 -46.862293 -0.9891628
-22.744274 -32.056305 -0.88342166
-26.717306 -31.529804 -0.88384175
-23.203533 -32.535416 -0.90812308
-29.055172 -30.318401 -0.91441447
-25.607002 -32.665054 -0.92590714
-26.314533 -31.209732 -0.9282676
-28.030907 -32.992851 -0.93658805
-26.378748 -30.819164 -0.97011763
-26.109346 -37.3368 -0.97510409
-25.365047 -32.216446 -0.98513883
-28.691162 -30.0639 -0.99224007
-23.646759 -23.420366 -0.88176441
-22.308548 -24.249405 -0.88822275
-23.775204 -22.688408 -0.88863963
-29.656708 -26.837677 -0.89623034
-27.244476 -20.700947 -0.89737177
-20.7915 -19.126535 -0.9107154
-22.987764 -22.830524 -0.92802405
-24.291513 -23.782085 -0.92846566
-21.832996 -21.938234 -0.93427908
-26.946842 -20.732019 -0.9408384
-21.736984 -19.776915 -0.94623548
-23.702927 -24.604044 -0.94658852
-21.350111 -19.856255 -0.95153809
-23.410288 -20.179331 -0.95606947
-22.674229 -20.97982 -0.97048181
-19.839397 -22.690918 -0.97067958
-23.491083 -18.329281 -0.97332215
-20.075016 -19.14039 -0.97376895
-20.5375 -18.17992 -0.99298954
-29.688023 -14.755592 -0.90296125
-26.329416 -13.027158 -0.90410948
-28.900787 -13.682771 -0.91838789
-21.397499 -12.957039 -0.94400859
-21.591097 -14.215739 -0.95230412
-20.474604 -13.440419 -0.95326704
-21.885143 -13.246905 -0.96615469
-20.244816 -12.019924 -0.97469258
-22.249001 -12.730151 -0.98089623
-19.943718 -1.903843 -0.93430817
-25.431698 -1.7972624 -0.93756813
-25.421059 -5.3233418 -0.95039445
-20.215448 -0.8765884 -0.96617842
-17.976873 -198.94795 0.48912933
-12.990849 -198.08321 0.48491949
-13.047302 -198.09248 0.47211039
-11.720011 -204.08777 0.45831376
-13.706122 -198.26773 0.44604164
-18.640701 -199.34331 0.41610065
-15.300747 -204.79904 0.40135667
-11.844238 -197.78143 0.39471379
-19.139585 -199.50154 0.33386287
-13.102185 -205.37447 0.32088876
-18.766476 -199.60718 0.31208584
-19.515341 -198.08014 0.29181969
-19.343418 -199.28938 0.24619319
-14.383228 -205.23087 0.21839903
-18.768625 -205.48793 0.17955051
-19.277901 -199.58763 -0.0015459675
-14.194118 -191.71362 -0.90473211
-17.114527 -191.67998 -0.9088167
-10.513172 -190.35927 -0.91262376
-13.712419 -190.7887 -0.91455829
-19.719667 -192.52608 -0.91559428
-10.275491 -190.72092 -0.9186669
-18.311092 -188.34836 -0.9189688
-16.062437 -191.04674 -0.91904753
-17.179331 -192.3732 -0.92493391
-14.692433 -191.79141 -0.925125
-16.78163 -191.62811 -0.92776829
-14.248486 -188.80029 -0.93045235
-18.766956 -188.18341 -0.93472838
-13.298875 -190.98167 -0.93581951
-18.151855 -191.52179 -0.936993
-11.743263 -190.92729 -0.93863428
-17.034058 -193.09862 -0.93886834
-12.531828 -190.29321 -0.94212663
-17.707922 -188.60957 -0.95081365
-16.24382 -188.63129 -0.95865947
-17.764996 -191.87041 -0.95902371
-19.038902 -188.07561 -0.97020918
-11.716296 -191.16945 -0.97177982
-12.403297 -190.33505 -0.9756124
-17.419138 -188.5157 -0.97751516
-15.547611 -188.05698 -0.98697668
-13.931886 -191.69675 -0.98783851
-10.364067 -190.49454 -0.9893887
-12.097531 -190.80685 -0.99684906
-18.544233 -191.79121 -0.99778032
-10.595489 -185.67635 -0.97012788
-19.257824 -182.27986 -0.97187525
-14.61005 -178.76176 -0.97286385
-19.276188 -186.32597 -0.97559035
-10.719337 -186.32738 -0.97653484
-17.593182 -179.75635 -0.97693783
-14.65753 -180.36848 -0.97723037
-15.179669 -180.02057 -0.97733748
-13.919163 -179.00421 -0.97766745
-15.724894 -179.84814 -0.97856534
-14.909632 -180.84042 -0.97917849
-15.574164 -186.67648 -0.98290581
-13.525775 -186.22452 -0.9832015
-12.287645 -186.49402 -0.98371959
-18.169188 -186.26659 -0.98415875
-11.339201 -186.01274 -0.98601741
-10.386969 -185.53139 -0.98623651
-15.695277 -185.30728 -0.9876368
-9.7983236 -182.85947 -0.98930663
-13.708976 -185.94604 -0.98942626
-13.163939 -185.30087 -0.99084687
-10.991774 -180.91946 -0.99256825
-13.218673 -177.94308 -0.99310547
-10.06557 -181.22623 -0.99395823
-13.689237 -178.73013 -0.99420905
-19.585651 -184.96915 -0.99543983
-10.889004 -179.7589 -0.99701691
-14.118084 -184.81485 -0.99702442
-12.336502 -178.35777 -0.99749511
-11.798503 -184.57852 -0.99855095
-15.111593 -179.74911 -0.9991892
-13.428611 -178.12903 -0.99975973
-10.488733 -168.78929 -0.95375109
-11.741542 -172.32674 -0.95397955
-9.8190594 -171.78958 -0.95405138
-11.837634 -177.70209 -0.95546764
-11.088028 -174.95071 -0.95647937
-10.147608 -175.75345 -0.95683521
-15.346354 -172.34073 -0.95739251
-10.885112 -173.3688 -0.95945144
-12.733672 -176.35062 -0.96115351
-12.332362 -175.72551 -0.96165776
-14.395681 -170.31166 -0.96263909
-12.466114 -171.18127 -0.96315718
-14.70109 -176.67245 -0.96468544
-13.216802 -176.74402 -0.96505141
-10.885389 -174.69724 -0.96568596
-10.754749 -176.78542 -0.96620733
-17.610264 -173.13454 -0.96643674
-13.74007 -177.59889 -0.96846199
-10.965717 -169.1792 -0.97222495
-13.225494 -175.15611 -0.97403926
-13.622367 -176.77739 -0.97455949
-14.14891 -168.63931 -0.9764024
-11.775305 -173.15894 -0.97922993
-10.142634 -176.32385 -0.97971714
-14.890035 -173.2925 -0.97977918
-13.958389 -170.52531 -0.98560184
-13.754848 -171.90479 -0.9887051
-9.8289366 -170.80028 -0.99084204
-10.184876 -171.47961 -0.99101371
-13.346771 -173.70648 -0.99298918
-12.697241 -170.50069 -0.99393249
-13.41017 -174.19783 -0.99550265
-11.63239 -176.92461 -0.9963789
-15.567853 -159.55009 -0.96537226
-11.071772 -162.68486 -0.96609569
-12.906525 -164.39505 -0.9682228
-13.486542 -166.09273 -0.97111344
-16.514017 -164.77814 -0.97216225
-11.049547 -161.89943 -0.97343636
-13.083812 -162.01477 -0.97506684
-12.262141 -165.79907 -0.97530872
-16.26996 -160.1698 -0.97678274
-11.386856 -162.02937 -0.97681993
-12.580488 -162.1622 -0.98152375
-18.124575 -164.88759 -0.98734367
-13.719035 -158.79979 -0.98787373
-12.995373 -166.17838 -0.98819125
-14.33574 -164.68187 -0.99287856
-12.250594 -162.47997 -0.99426305
-12.725781 -160.06235 -0.99550492
-12.585653 -161.73976 -0.99770117
-14.5414 -157.55716 -0.99144161
-15.818482 -155.96756 -0.99781579
-19.159002 -146.72377 -0.92907828
-17.369123 -57.877972 -0.99031669
-14.489226 -53.014431 -0.95322561
-15.41132 -55.76268 -0.95419604
-12.24792 -57.359634 -0.95722198
-11.449895 -55.737194 -0.95745486
-12.603891 -56.858379 -0.95768142
-12.469635 -55.724144 -0.95926183
-14.278812 -53.985123 -0.95951587
-13.164456 -56.871613 -0.96071923
-14.600417 -53.064949 -0.9612844
-18.926926 -53.718437 -0.9739691
-18.690948 -53.48103 -0.98480582
-11.640091 -56.463535 -0.98482692
-14.321085 -54.963764 -0.99077451
-12.685703 -56.080032 -0.99190295
-16.652044 -53.431946 -0.99457127
-14.167234 -55.174881 -0.9976328
-18.097771 -53.301075 -0.9983685
-11.927324 -44.257504 -0.92646825
-17.306198 -44.772789 -0.93808591
-14.934483 -40.357433 -0.94322371
-13.523293 -45.740597 -0.94685143
-12.83949 -45.984589 -0.94876558
-11.749524 -45.317905 -0.95024377
-10.234833 -45.628586 -0.96087474
-11.359056 -45.169685 -0.96728206
-17.139742 -45.915604 -0.98484403
-16.820988 -45.829494 -0.98616421
-12.674124 -41.045284 -0.98793852
-14.946166 -39.044102 -0.99183923
-10.741148 -45.98307 -0.99482912
-10.507453 -28.554857 -0.89940047
-10.715577 -34.764069 -0.90205556
-19.626774 -27.889439 -0.90238297
-13.231018 -36.706692 -0.9039914
-11.378859 -37.670776 -0.90423143
-12.240136 -29.079962 -0.91567105
-13.661377 -37.204216 -0.92839497
-14.221326 -36.906689 -0.9299221
-18.411348 -37.50436 -0.93064916
-10.455089 -28.555975 -0.93302393
-14.023234 -36.323078 -0.93469447
-14.743316 -36.183144 -0.93505174
-18.196949 -37.307659 -0.95225871
-11.09114 -35.124893 -0.95387173
-12.798285 -30.161087 -0.95873278
-11.527645 -35.829155 -0.97394866
-13.468495 -35.956322 -0.99822152
-13.662102 -22.266205 -0.92607546
-16.291361 -24.129099 -0.92874402
-18.545977 -23.004669 -0.92919469
-15.788498 -23.850727 -0.93077534
-19.665163 -19.049042 -0.93181086
-18.618204 -19.678789 -0.95167375
-15.083406 -22.129211 -0.95819068
-17.204683 -21.760651 -0.95906085
-19.419495 -19.112238 -0.96489316
-15.016233 -20.924265 -0.96517867
-19.530821 -18.887842 -0.96696007
-17.116644 -24.464666 -0.9677918
-17.141537 -23.577913 -0.9687413
-18.582111 -20.299847 -0.97514659
-19.018301 -22.675579 -0.976659
-11.920207 -25.966101 -0.97718549
-15.707715 -24.120502 -0.98552579
-12.14775 -18.866251 -0.98585916
-13.256503 -22.195675 -0.99395889
-11.2575 -10.556759 -0.94178742
-11.646569 -12.62561 -0.9536432
-12.995878 -11.502666 -0.95409173
-10.320592 -11.316705 -0.95618504
-15.388337 -14.600644 -0.96492732
-18.779022 -12.78928 -0.96682459
-13.009727 -11.449039 -0.97308296
-10.52295 -10.145311 -0.97461081
-19.3071 -1.3126431 -0.84756404
-17.006048 -0.061902046 -0.85673702
-16.841606 -0.11139452 -0.86013454
-18.177088 -3.4713945 -0.86919522
-17.331263 -0.89237404 -0.8693707
-17.868023 -0.85618919 -0.87076938
-18.127966 -0.70114976 -0.88364631
-19.735256 -0.78693181 -0.88875824
-17.608591 -1.0439774 -0.8933239
-12.747044 0.40656531 -0.90695733
-14.94453 -5.1912642 -0.92828065
-13.329103 -0.43253407 -0.93924612
-15.041341 0.05464825 -0.94395196
-16.905785 -1.3328378 -0.99448043
-13.116371 0.40765041 -0.99657476
-3.5386634 -201.38527 1.0054314
-7.8304634 -198.0273 0.99838281
-9.2500677 -200.22197 0.97003734
-9.7053013 -200.36601 0.94074792
-7.5675826 -198.82828 0.936198
-1.4603221 -199.43472 0.8887924
-3.7921231 -201.4174 0.87876952
-4.6195884 -201.49738 0.87812662
-5.7317815 -202.36942 0.80469483
-6.7129602 -202.29391 0.78907335
-6.2051811 -202.25862 0.74429792
-6.6201882 -202.97774 0.72078985
-7.9481125 -203.06705 0.62136757
-8.1036844 -203.08186 0.58857387
-7.9547005 -202.98099 0.55904806
-7.3949018 -202.29459 0.5441066
-8.2226028 -201.85002 0.31116962
0.17270108 -201.12349 0.23348428
-1.8858068 -202.7019 0.22844356
-8.8248587 -191.72055 -0.25537795
-9.2029848 -191.66724 -0.29472548
-9.4345055 -193.20813 -0.33232945
-9.004673 -191.44896 -0.35104924
-8.846384 -191.46156 -0.40990552
-8.3463326 -191.19766 -0.47665632
-5.5111895 -191.16342 -0.48285654
-8.5544319 -191.60333 -0.51951176
-5.2645512 -190.79199 -0.55005884
-8.743041 -191.15581 -0.59276068
-8.3660526 -191.22069 -0.6110273
-9.4597292 -192.51688 -0.67504025
-9.2525005 -191.18137 -0.70567024
-5.1977916 -190.45828 -0.73835677
-9.5278978 -190.6756 -0.81220144
-8.3281288 -190.77666 -0.83140683
-6.6749802 -190.52982 -0.88524514
-9.6309471 -190.27954 -0.92919827
-9.1568117 -190.64206 -0.94113487
-8.6847544 -190.25623 -0.94715309
-5.5054746 -189.95624 -0.98600394
-9.4001369 -190.00552 -0.99026209
-5.1083422 -180.16121 -0.98796034
-0.61328018 -180.22568 -0.98984212
-2.3225243 -182.55746 -0.99018514
-4.5182004 -184.57565 -0.99363679
-8.2149868 -181.28307 -0.99486089
-8.2957754 -181.6711 -0.99565291
-8.5579967 -184.61215 -0.99686658
-6.373323 -181.14067 -0.99704456
-9.2629395 -187.52043 -0.9992367
-8.5033827 -169.36394 -0.98243296
-7.0366149 -173.80849 -0.98478305
-3.6542053 -176.21213 -0.98606986
-9.6365299 -168.43063 -0.98637891
-2.1683838 -177.74149 -0.98871034
-9.7707424 -173.7366 -0.98961473
-9.3907423 -175.07285 -0.99125475
-9.7288141 -174.74028 -0.99182147
-7.0057044 -173.48235 -0.9927116
-9.0231466 -172.88388 -0.99615681
-8.3764563 -164.34161 -0.96676409
-9.5292578 -164.28256 -0.97166759
-9.7058029 -155.53024 -0.99305433
-5.3448243 -57.780479 -0.96291691
-0.42336965 -51.944221 -0.92826712
-4.1615443 -50.34993 -0.9305138
-7.9807901 -55.531006 -0.93482548
-1.2291772 -54.577026 -0.94610089
-1.7747737 -52.664074 -0.94698924
-9.6726542 -51.887196 -0.94783568
-0.65506268 -55.043648 -0.94946057
-4.875371 -52.895466 -0.95047569
-0.40907317 -52.653431 -0.95093137
-1.416151 -53.000298 -0.9544121
-0.6416536 -55.667313 -0.95514548
-1.998065 -49.980064 -0.95517331
0.15921301 -52.23735 -0.96933603
-2.3550763 -54.123718 -0.98186326
-3.4908087 -50.301273 -0.98239082
0.15168796 -50.090549 -0.99586886
-1.1313939 -53.703518 -0.99992853
-6.1626892 -44.857231 -0.98457098
-2.7331171 -42.431694 -0.9920187
-8.9251642 -45.301567 -0.99559879
-2.6385822 -43.036892 -0.99723136
-0.91394496 -43.504063 -0.99940962
-5.3477163 -27.823532 -0.92361999
-8.1832733 -34.801323 -0.9241001
-5.2431974 -37.285717 -0.93635315
-4.6560512 -34.724758 -0.93677557
-9.6495075 -35.725315 -0.94698089
-2.864398 -33.727955 -0.94750184
-6.9955192 -35.750717 -0.95046973
-4.6645694 -36.661411 -0.95340616
-3.0352306 -33.8339 -0.95346153
-0.37440637 -36.96384 -0.95699072
-2.5007405 -35.156818 -0.95837629
-4.6583109 -34.308376 -0.95841587
-3.2413967 -27.891144 -0.96475714
-2.3123763 -37.39447 -0.96580297
-4.1518621 -28.01152 -0.99251062
-3.1824429 -25.270807 -0.96146035
-1.9683886 -18.065157 -0.96270305
-1.2585473 -25.688604 -0.9633705
-7.2598991 -26.600906 -0.96348399
-4.5043564 -20.739174 -0.96858358
-9.5806847 -21.662048 -0.97109658
-3.4004433 -18.487967 -0.97303313
-0.88538051 -17.857414 -0.97713226
-4.9127584 -27.085857 -0.9776389
-1.018133 -17.82094 -0.97818327
-6.4816527 -18.050774 -0.98095626
-0.42052391 -21.098076 -0.98105991
-2.5869741 -25.170969 -0.98228252
-1.4969409 -18.078058 -0.98686439
-0.68663418 -24.954414 -0.98905766
-0.98446846 -19.9501 -0.99027842
-7.9329791 -22.872627 -0.99521071
-0.12378231 -21.590803 -0.99657774
-2.0853677 -17.433212 -0.97928721
-8.6099548 -10.121061 -0.98081315
-6.3838377 -17.436472 -0.98173118
-6.7541685 -9.3675117 -0.99679726
-5.8839984 -4.2212491 -0.95909995
-5.1271029 -3.80336 -0.9833532
1.5407125 -200.09662 0.4360469
0.44421184 -202.09477 0.42638564
2.1055136 -200.92921 0.4232758
1.5668306 -200.58115 0.39058444
2.1725125 -200.25642 0.38035369
1.1966047 -199.81233 0.31910977
2.5442476 -200.29359 0.23178841
1.9638169 -200.88182 -0.15419164
4.2538776 -194.05582 0.90233034
4.5440264 -194.0694 0.90000594
1.3494394 -193.54326 0.89179504
7.3236022 -192.35677 0.88895971
1.7680492 -194.69366 0.88774562
1.5168697 -193.57384 0.88656247
2.0182526 -194.57748 0.88480085
4.0896683 -192.93535 0.88117009
7.2122345 -193.28287 0.8743102
2.1636019 -195.9369 0.8681795
5.8823366 -193.61539 0.86571187
6.6536312 -192.61592 0.81831539
4.886971 -193.02454 0.8145026
2.1842313 -194.45421 0.8071
6.4812007 -192.37361 0.78034824
1.4409715 -193.3213 0.77925515
1.2963237 -194.74768 0.77799952
4.1076541 -193.15045 0.75140327
0.33450329 -195.01747 0.695463
3.7047348 -193.04457 0.63838601
3.042345 -193.13045 0.44750708
1.5017942 -194.73273 0.42109981
2.8240888 -180.71825 -0.99588662
5.7224865 -168.69077 -0.96164513
0.66157609 -169.32712 -0.98457527
4.6473379 -163.43513 -0.97410393
2.3580189 -165.88087 -0.97445661
6.1154151 -148.78577 -0.80826735
5.8361731 -147.28419 -0.36660916
9.5686102 -48.061863 -0.9668597
3.9280577 -48.445759 -0.97111577
3.2290673 -53.068863 -0.97304827
5.5797153 -51.864388 -0.97491473
7.9839144 -55.459816 -0.9750886
3.1999807 -49.030926 -0.97530144
7.9630847 -48.920597 -0.97803301
0.74084234 -48.186176 -0.98722929
2.8482873 -52.74181 -0.989173
0.26954019 -51.628582 -0.99219286
3.130157 -52.234497 -0.99245512
8.7844582 -46.309631 -0.98990732
3.6122818 -41.460449 -0.9924106
8.7406435 -41.131149 -0.99918538
1.372061 -42.550297 -0.99938053
6.2924075 -32.654446 -0.95871687
2.83812 -34.189976 -0.95973378
4.011384 -35.285168 -0.96034366
2.7060177 -36.108395 -0.96270365
3.0180767 -33.807507 -0.9668622
1.5693936 -36.732758 -0.97254205
6.3773551 -36.268578 -0.97592503
1.8257422 -31.424534 -0.97616619
4.7878008 -32.69503 -0.97702193
3.2221065 -35.301632 -0.98017693
8.2786245 -32.800446 -0.98716593
5.5649161 -33.771629 -0.99059695
5.9876342 -34.026554 -0.99500817
8.1251879 -25.12919 -0.97314131
2.614933 -24.584253 -0.98000437
8.8308477 -18.620245 -0.98220825
1.1311185 -24.866955 -0.98302436
7.9414101 -21.926302 -0.98883545
7.93432 -24.490435 -0.99203223
4.1939759 -18.385351 -0.99916583
9.8683224 -21.347586 -0.99952596
10.115528 -14.710808 -0.94633538
2.2288127 -17.481392 -0.94788808
6.8521075 -12.837738 -0.9623943
9.580678 -8.2645721 -0.96906835
2.6951199 -17.124878 -0.97894639
9.2568207 -16.710541 -0.97903991
10.067822 -13.819036 -0.98120731
1.3924707 -17.019188 -0.98835593
9.2398272 -8.5323772 -0.99487346
1.1036744 -16.280174 -0.99632812
3.0263591 -16.641903 -0.99741346
6.4129362 -5.9651003 -0.98410672
6.8431344 -5.2744055 -0.98412651
9.0486317 -7.5599861 -0.98836201
7.6488767 -3.6730273 -0.99473572
9.1113768 2.8825896 -0.67862421
15.441005 -193.70715 1.106195
14.008348 -194.09569 1.0979347
19.262558 -192.50322 1.0910592
12.606342 -193.8756 1.0804144
14.51998 -195.22452 1.0495574
15.660643 -193.96547 1.0136644
17.45903 -193.1792 1.0130452
17.064251 -193.28725 0.99676931
10.619104 -164.26137 -0.93548685
15.249092 -67.870125 2.8801632
15.104348 -57.975285 0.9050504
10.729237 -57.009026 -0.91506702
13.47231 -48.705906 -0.9154709
