# .PCD v0.7 - Point Cloud Data file format
VERSION 0.7
FIELDS x y z
SIZE 4 4 4
TYPE F F F
COUNT 1 1 1
WIDTH 107
HEIGHT 1
VIEWPOINT 0 0 0 1 0 0 0
POINTS 107
DATA ascii
-137.72469 59.97599 -1.1859901
-137.72469 74.97599 -0.61853403
-122.72469 -0.024009705 -1.4797766
-122.72469 14.97599 -1.7816066
-122.72469 29.97599 -1.5955952
-122.72469 44.97599 -1.3057008
-122.72469 59.97599 -1.3833239
-122.72469 74.97599 -0.69874102
-107.72469 29.97599 -1.0604346
-107.72469 44.97599 -1.110786
-107.72469 59.97599 -1.2091957
-107.72469 74.97599 -0.94101036
-92.724686 -15.02401 -1.9654325
-92.724686 14.97599 -1.1954651
-92.724686 29.97599 -1.1150541
-92.724686 44.97599 -0.81294322
-92.724686 59.97599 -1.0009055
-92.724686 74.97599 -0.92548722
-92.724686 89.97599 -1.4655418
-77.724686 -15.02401 -1.9913881
-77.724686 14.97599 -1.5171324
-77.724686 29.97599 -1.109015
-77.724686 44.97599 -0.70829451
-77.724686 59.97599 -0.66223705
-77.724686 74.97599 -1.0324851
-77.724686 89.97599 -1.0419788
-77.724686 104.97599 -1.6403115
-77.724686 119.97599 -1.8135842
-62.724686 -15.02401 -1.9719313
-62.724686 -0.024009705 -0.72755802
-62.724686 14.97599 -1.2612889
-62.724686 29.97599 -1.0248343
-62.724686 44.97599 -0.728616
-62.724686 59.97599 -1.0072371
-62.724686 74.97599 -1.0681448
-62.724686 89.97599 -0.21167535
-62.724686 104.97599 -1.2190604
-62.724686 119.97599 -1.800451
-62.724686 134.97598 -1.9742476
-47.724686 -45.02401 -1.2478273
-47.724686 -30.02401 -0.69026589
-47.724686 -15.02401 -0.73666149
-47.724686 -0.024009705 -0.61911434
-47.724686 14.97599 -0.60087067
-47.724686 29.97599 -1.0379621
-47.724686 44.97599 -0.8985039
-47.724686 59.97599 -0.70225435
-47.724686 74.97599 -0.78709984
-47.724686 89.97599 -0.73778665
-47.724686 104.97599 -1.3088189
-47.724686 119.97599 -1.7267685
-47.724686 134.97598 -1.6833498
-32.724686 -60.02401 -1.518936
-32.724686 -45.02401 -0.9766897
-32.724686 -30.02401 -0.62263578
-32.724686 -15.02401 -0.36322841
-32.724686 -0.024009705 -0.58096278
-32.724686 14.97599 -0.64157617
-32.724686 29.97599 -1.0326174
-32.724686 44.97599 -1.2006348
-32.724686 59.97599 -1.0881298
-32.724686 74.97599 -1.2984952
-32.724686 89.97599 -0.76962852
-32.724686 104.97599 -0.99939758
-32.724686 119.97599 -1.5211632
-17.724686 -60.02401 -1.1620408
-17.724686 -45.02401 -0.88366139
-17.724686 -30.02401 -0.6966182
-17.724686 -15.02401 -0.28894874
-17.724686 -0.024009705 -0.86114705
-17.724686 14.97599 -0.88526762
-17.724686 29.97599 -1.0454111
-17.724686 44.97599 -1.1867967
-17.724686 59.97599 -1.4233094
-17.724686 74.97599 -1.801893
-17.724686 89.97599 -1.2638111
-2.7246857 -75.02401 -0.72458267
-2.7246857 -60.02401 -0.87270212
-2.7246857 -45.02401 -1.059414
-2.7246857 -30.02401 -0.71084243
-2.7246857 -15.02401 -0.36266446
-2.7246857 -0.024009705 -0.86452532
-2.7246857 14.97599 -0.70099181
-2.7246857 29.97599 -0.98404723
-2.7246857 44.97599 -1.1809545
-2.7246857 59.97599 -1.2162316
-2.7246857 74.97599 -1.0956267
-2.7246857 89.97599 -1.6256341
-2.7246857 104.97599 0.17014155
12.275314 -75.02401 -1.2239501
12.275314 -60.02401 -1.0869964
12.275314 -45.02401 -0.43190324
12.275314 -30.02401 -0.022859076
12.275314 -15.02401 -0.020861946
12.275314 -0.024009705 -1.3416014
12.275314 14.97599 -1.077983
12.275314 29.97599 -1.1677376
12.275314 44.97599 -1.6000657
12.275314 59.97599 -1.7889115
12.275314 74.97599 -1.8256497
12.275314 89.97599 -1.6775579
12.275314 104.97599 -1.8849399
27.275314 -0.024009705 -1.350199
27.275314 44.97599 0.11981455
27.275314 89.97599 -1.0413984
27.275314 104.97599 -0.89124072
42.275314 -0.024009705 -1.926563
