# .PCD v0.7 - Point Cloud Data file format
VERSION 0.7
FIELDS x y z
SIZE 4 4 4
TYPE F F F
COUNT 1 1 1
WIDTH 1560
HEIGHT 1
VIEWPOINT 0 0 0 1 0 0 0
POINTS 1560
DATA ascii
21.077177 2.5507188 0.0046449569
22.603817 6.0384283 -0.027900748
19.642326 4.8068399 -0.030296803
21.270458 7.0400734 -0.040255535
21.936213 7.3337641 -0.041719902
22.425711 3.867038 -0.05446662
27.653679 8.2298279 -0.055406939
23.754538 6.0674338 -0.083012037
22.684128 4.7110763 -0.08886452
25.683084 4.9977622 -0.097121023
26.74902 5.9118309 -0.1235313
22.182158 8.1229448 -0.1251239
22.81703 4.3765616 -0.12627828
23.277662 7.1629434 -0.14208099
23.270153 19.795652 0.38529679
23.675207 10.937055 0.38414863
21.690763 17.042294 0.38296673
24.067802 11.797611 0.38177398
26.70167 16.229643 0.38176498
26.679024 10.769554 0.38106284
28.268803 18.839849 0.38081366
20.203255 10.741856 0.38046533
26.487411 13.056256 0.37952748
21.123072 17.83844 0.37908787
22.397413 15.679431 0.37845987
25.252201 13.983017 0.3783198
24.257826 14.341467 0.37822196
19.271564 13.753939 0.37772667
26.680084 11.257013 0.37660146
19.816231 11.862155 0.37644362
23.066027 12.355865 0.37535045
24.241354 18.304537 0.37369391
20.797987 17.304413 0.37356004
21.635231 14.608754 0.37315631
22.535254 19.215334 0.37166241
22.373238 14.301074 0.37090605
25.785463 10.841969 0.36957198
23.007008 18.866409 0.36863503
26.331148 11.054867 0.36635539
20.268368 13.808722 0.36460897
25.124016 17.896172 0.36199874
28.812044 10.853096 0.35785437
26.12175 12.828263 0.35608798
21.302408 16.773767 0.35437596
22.362921 17.676765 0.35311452
22.600395 11.240059 0.35177553
25.776039 12.600243 0.35001194
27.877371 19.440632 0.34967726
27.131792 11.488879 0.34919462
26.617481 13.526074 0.34702033
28.249788 13.137867 0.34636754
27.718491 13.152351 0.34550092
22.785381 15.437529 0.34215191
21.576397 16.342091 0.33926949
28.97049 14.695477 0.33446008
23.774651 16.658875 0.33291468
22.058001 14.509093 0.3279241
28.200048 12.744707 0.32304499
25.073418 18.408976 0.31970716
20.438627 16.214937 0.30944899
22.763355 16.824015 0.30775645
22.232725 16.166517 0.30767789
19.410501 16.642426 0.29436997
19.556194 16.86532 0.28618914
24.305252 15.81933 0.27896875
19.978857 11.104888 0.27827808
19.349407 16.10285 0.27276844
24.050425 17.544643 0.27276358
26.182577 18.24659 0.27125233
22.642668 16.154461 0.264864
23.098295 18.418703 0.23561369
22.110521 20.515223 0.22273254
24.45516 10.836793 0.19791429
23.759108 16.459835 0.17525128
28.420872 19.126511 -0.07240364
27.227448 23.344149 0.37348825
28.198719 21.273966 0.36465079
28.971247 25.226475 0.35754085
26.747082 25.865814 0.34455734
27.124125 22.783827 0.34215957
27.310661 23.960285 0.32760495
28.11261 25.869551 0.3253527
28.723005 22.909378 0.31052899
25.89801 21.196756 0.31001213
28.810146 24.788612 0.28173658
27.573277 24.916397 0.25860152
26.719193 22.280005 0.22150135
33.380318 -5.7366834 -0.027075822
34.854572 -4.2604065 -0.02806044
33.591801 -6.8226929 -0.035250563
38.656471 -1.1045331 -0.036966898
35.77636 -3.7912812 -0.037948381
38.962769 -3.4690061 -0.043556672
37.590195 -4.1471109 -0.0475903
36.832138 -4.1004343 -0.052138712
35.791706 -6.2208438 -0.054658692
38.275734 -3.6715159 -0.058673114
34.807102 -5.3823285 -0.060377263
37.122417 -0.61216491 -0.062585719
36.226582 -5.723412 -0.066068888
36.982758 -0.43691501 -0.066193305
36.836567 -5.6906471 -0.066221327
35.939423 -5.6300716 -0.072303817
38.978054 -2.6312118 -0.074343376
37.593864 -4.8155608 -0.080990084
37.125736 -4.1077304 -0.081741743
37.848907 -2.0602787 -0.096285403
37.84668 -5.6179919 -0.11710723
34.374039 -5.2815838 -0.11899779
35.739487 -5.4011564 -0.13156401
38.71748 0.61141849 -0.13323233
36.184959 -4.0937929 -0.13626155
36.730881 -3.6447983 -0.14372419
36.309902 -6.0589452 -0.14451693
37.16716 -5.1622238 -0.14458208
35.523746 -4.9827819 -0.15361238
36.227081 -4.5410633 -0.15392485
34.895714 -4.9293642 -0.1556557
38.180183 -4.4387474 -0.16094115
37.276299 -1.8246694 -0.16869862
35.013657 -4.8903947 -0.17019902
38.266727 -0.22597529 -0.18805705
38.292564 6.8084087 -0.020751551
33.389202 8.340107 -0.022376508
38.554424 1.8880489 -0.023004187
36.82246 7.6288996 -0.029152501
33.93922 6.2997551 -0.032037806
35.464317 7.7172437 -0.040063027
37.262379 7.4412966 -0.042095281
38.478703 3.3223064 -0.04500581
38.89679 8.9866772 -0.047876585
38.75798 1.0500324 -0.051246546
33.663391 8.7366505 -0.053032067
37.891262 6.378756 -0.067057908
34.841476 7.4147243 -0.06899669
34.698738 7.7548809 -0.070648432
37.216415 8.2965155 -0.074200325
37.726627 9.6454067 -0.07911507
35.126232 6.4703526 -0.087693304
34.141479 9.2221603 -0.089307398
35.602142 6.744699 -0.090480059
36.650246 8.2082739 -0.092458442
36.276596 7.7029929 -0.093001045
37.727993 8.7242527 -0.1047527
33.70219 7.634203 -0.10759588
37.678448 7.8692684 -0.11063337
37.430401 10.533859 -0.11176632
37.60928 7.0343194 -0.12210128
36.968777 6.6996765 -0.12507202
29.948126 8.5362844 -0.13343874
38.357601 6.2927952 -0.14268331
38.039337 8.1069145 -0.15029374
37.141289 6.2263227 -0.15493613
35.295425 6.8504643 -0.15787342
35.377739 8.5010443 -0.17269894
33.739971 7.4194603 -0.17273429
32.967136 10.311707 -0.19486947
36.762978 8.6647873 -0.21892749
37.248619 7.8073659 -0.2210951
37.636829 6.7817378 -0.2222904
35.206123 7.2743645 -0.22679588
36.310505 8.2478676 -0.23282504
37.32309 9.9033403 -0.23388107
36.847805 9.5441542 -0.23837313
32.738377 6.991775 -0.23840246
36.382004 8.5118732 -0.24035206
35.988445 9.5231781 -0.24929923
34.189411 5.8451128 -0.26209101
36.22501 9.0827885 -0.26405716
34.638577 9.0720615 -0.26642472
33.380577 7.4372516 -0.28646815
38.745483 8.3187313 -0.29328161
33.813374 7.4194937 -0.51853025
35.901287 11.635986 0.33095706
29.093573 11.701494 0.32924306
34.623283 12.204588 0.32904252
32.215946 12.225371 0.32857519
29.818308 15.817283 0.32797301
36.771358 12.131427 0.32674104
31.874763 18.622604 0.32632869
37.160786 15.342379 0.32578343
38.774799 12.235415 0.32418674
34.632191 13.050499 0.32373586
38.317459 12.188869 0.32282549
38.987709 18.042852 0.32273218
34.656841 11.142625 0.32247818
37.366436 15.807361 0.32189354
39.02969 13.037715 0.31632546
30.667309 19.615381 0.31319103
36.479298 16.221928 0.3107115
35.79414 12.740245 0.30979976
36.446438 17.05611 0.30713394
34.127216 13.050173 0.30195907
38.192089 13.728583 0.29682294
32.075985 16.735682 0.29561347
33.833359 10.721903 0.29314733
29.92584 12.78484 0.29026154
32.308525 15.579862 0.29020652
31.817701 12.275837 0.28831112
35.742363 17.243851 0.28779888
37.410484 10.700962 0.28586602
37.18676 11.905414 0.28523266
31.831303 16.59643 0.28462222
38.718197 16.809816 0.281968
38.919945 13.862921 0.27799648
34.294193 11.894096 0.27242318
37.761761 13.283078 0.26727486
37.438354 11.392945 0.26663089
31.592829 13.787982 0.26573193
31.268869 20.449604 0.2579059
29.596615 18.41667 0.25414273
30.264345 19.234583 0.25142792
31.880484 14.248651 0.24129197
35.636028 10.828023 0.24109484
34.851833 10.916809 0.23747985
35.715649 11.115943 0.2358806
33.174255 16.626411 0.23586513
33.846661 19.385332 0.23465168
38.843384 12.701401 0.23463732
33.387783 13.550014 0.23296967
36.691833 11.315105 0.23133989
38.864925 11.851982 0.21839602
35.065739 15.702024 0.21826139
30.966932 13.440557 0.20049326
32.835304 16.008347 0.19204222
32.478901 14.106608 0.14807154
32.912983 14.175018 0.12575182
34.232365 10.717239 0.08029037
37.521008 11.626088 -0.015291156
34.505547 12.689413 -0.10123061
32.99688 13.658819 -0.21178344
36.740971 11.916147 -0.25015801
36.73238 11.018296 -0.89554757
35.988758 26.941538 0.30165419
34.303627 23.175055 0.30154529
37.977974 25.648361 0.29221064
31.587292 23.461929 0.28916532
33.918339 28.434547 0.28855428
36.587326 25.835381 0.28797483
35.600784 25.631058 0.28662208
38.832508 24.249723 0.28593996
33.149803 27.040932 0.27931568
33.372894 23.662525 0.2769675
31.856205 28.407932 0.26926905
29.729284 26.672609 0.2684662
36.328911 27.774763 0.26661465
36.532131 21.907692 0.25129676
36.843464 25.302277 0.25110659
37.489147 21.100468 0.241501
36.220501 25.188511 0.24064523
35.485737 26.178881 0.23882607
29.075092 23.73958 0.23788086
35.034111 26.924362 0.23461998
31.201834 24.836182 0.23137973
29.071241 24.630165 0.23109478
36.183495 27.315044 0.22984076
30.841585 25.923637 0.2281466
31.732004 23.842352 0.22015679
32.815376 22.915895 0.21958143
35.527798 27.552633 0.20770553
38.714272 27.3634 0.19837393
32.480446 22.32357 0.19214602
33.646664 24.347292 0.18842697
37.143047 26.544228 0.15743363
32.028946 23.87817 0.13734402
38.01474 24.508795 0.13412744
35.589622 24.814756 0.13158447
37.560619 26.521257 0.059102274
32.120007 23.905924 -0.0079642106
37.622543 27.316767 -0.010509145
29.329918 22.808695 -0.014478456
38.609314 28.162802 -0.11867237
34.628448 30.894634 0.4991498
32.636459 31.02607 0.47658104
33.615726 30.954636 0.4710772
37.350155 31.083467 0.43075934
36.349144 31.593166 0.42884272
45.273636 -0.70714837 -0.12940615
39.227348 -3.1032169 -0.12969175
45.631973 -0.22550984 -0.14198641
44.581406 -0.076904617 -0.14547844
40.436928 -1.2916758 -0.14736511
48.103123 0.16888344 -0.14747456
43.203182 -0.069966547 -0.14896466
42.943977 -0.17562625 -0.150975
48.585899 -1.8725185 -0.1629592
43.013531 0.052658398 -0.17741787
42.15181 -1.4397498 -0.17783529
40.889904 -1.1635475 -0.17785837
42.763344 -1.6663707 -0.179261
45.699448 -0.74743307 -0.18510531
40.919594 -2.8258777 -0.19987959
44.702747 -1.4204661 -0.26071671
40.125984 0.24516563 -0.35263777
43.083221 -1.6982694 -0.41860032
39.455475 2.6818607 -0.082503527
39.929478 1.3440899 -0.08282017
45.288551 4.7343125 -0.08315894
44.325813 4.6640244 -0.083366171
44.84024 3.0641854 -0.087145649
42.219498 3.9619308 -0.0887722
44.08033 2.2074142 -0.091039784
40.836414 1.6455191 -0.094880447
45.624378 2.8121624 -0.098230466
48.516037 3.1336079 -0.10436735
42.724037 7.1612463 -0.10533258
41.159348 0.7712996 -0.10653668
44.672173 3.844069 -0.1115612
45.18478 2.3305871 -0.11264282
40.30555 1.599557 -0.11729068
46.885311 1.8274713 -0.12441155
46.645851 3.5434558 -0.12493931
39.252907 1.356046 -0.13157263
43.330502 3.1919973 -0.13260008
47.987316 2.0211959 -0.13381667
48.130905 4.7578049 -0.13963333
46.198586 4.1376295 -0.14345966
47.326706 6.906601 -0.14632086
40.539253 3.0694976 -0.14889622
46.86652 7.8080802 -0.15034689
47.601974 4.1568441 -0.15354149
46.109222 2.9732111 -0.15602846
48.8904 5.8730669 -0.15866661
43.481747 0.70877808 -0.15997256
45.145512 3.1177692 -0.16031124
45.418892 0.71321154 -0.16153961
45.888504 3.1536729 -0.16346657
45.19006 1.2632418 -0.17271979
45.205883 2.8407764 -0.18296622
44.979824 5.5031796 -0.18548538
41.505909 3.7623987 -0.19033548
45.372803 3.8417859 -0.19146839
47.326122 0.76195896 -0.19635078
48.293766 4.2033591 -0.21017246
46.605736 1.0241954 -0.21668324
41.880596 4.941699 -0.25991976
43.116669 7.2004123 -0.26396957
41.793232 4.2643943 -0.2857241
48.259132 14.335087 0.29960373
39.618347 13.726078 0.29757285
41.135353 12.738796 0.2975004
45.819908 16.587397 0.29725662
42.959221 17.082218 0.29572633
39.17099 12.562572 0.29093862
44.737041 15.782684 0.28970003
47.660458 14.16431 0.28892854
43.782307 18.732267 0.28567576
41.629635 17.508665 0.28398234
45.146202 18.909548 0.2835249
45.318146 19.54563 0.28266367
45.058174 19.319721 0.28103015
46.719475 19.846561 0.27841425
41.709084 13.438684 0.27440637
48.325237 12.689822 0.26793462
43.815937 17.167822 0.26550969
43.323044 15.972009 0.25459191
39.763927 17.015568 0.2512666
39.950405 13.08253 0.24742313
47.48753 15.458844 0.24315372
40.976345 16.43408 0.24196732
41.456444 14.039892 0.23322003
43.067905 11.476742 0.22359416
42.433815 12.61044 0.21594799
40.734409 13.737193 0.2133904
40.25602 12.13177 0.19972798
40.947445 18.041395 0.17974335
42.415478 14.056323 0.16648458
45.298351 17.500324 0.16593638
48.076504 17.716766 0.15652189
45.868221 16.35387 0.15408115
42.856594 16.373545 0.14990047
40.200516 12.995999 0.14209461
41.134823 12.339401 0.12043554
48.611519 10.767877 0.037721049
43.727737 20.239159 -0.0037982801
40.734634 13.673337 -0.030653119
42.294643 12.340182 -0.11106455
42.171604 13.495193 -0.27059329
43.800835 21.716022 0.31043822
41.269173 24.695946 0.30460295
41.55608 25.437511 0.2975789
41.146248 25.187368 0.28095689
40.710052 23.675171 0.27424601
42.130154 22.520193 0.25715816
41.611282 22.809206 0.24265903
41.179073 27.791737 0.24137038
40.916531 25.663494 0.22549152
41.804394 23.209478 0.19466977
42.707287 21.849066 0.18516736
42.24564 24.299496 0.17578292
44.030331 20.990793 0.16843012
40.450493 25.848639 0.15211798
42.820465 23.169439 0.14554174
42.856476 22.260042 0.13841391
43.162365 22.037962 0.11323282
43.118507 23.488916 0.10117362
42.714825 21.41235 0.085353419
44.050194 21.041557 0.06123234
42.335636 24.106083 -0.0034435019
40.458916 23.507351 -0.024732029
41.664276 23.738407 -0.042797677
40.483566 25.568579 -0.047112379
42.866058 21.212353 -0.05768634
39.702972 25.939533 -0.099510953
43.038822 21.330261 -0.10633241
42.358982 22.258045 -0.13618517
42.954636 30.743902 1.3939377
42.092571 31.070044 1.3744506
42.636005 31.302345 1.3170986
39.600105 35.286591 1.3153533
41.913692 32.858521 1.3088945
43.778053 30.888273 1.3068993
42.172955 32.772602 1.2680006
41.825581 30.79357 1.2530395
40.771873 30.722218 1.1860188
42.031551 30.721313 1.1795127
39.23418 31.789831 1.1394001
41.047565 31.042635 1.1163231
39.103859 30.910664 1.1052935
41.098549 34.369991 1.0791091
39.576874 31.341177 1.0717796
42.021141 32.924923 0.94859558
39.633759 31.729259 0.90323532
39.081802 30.933165 0.65272272
44.823063 42.059864 2.9422467
52.944229 -2.0969014 -0.0021978922
53.464394 -0.99540091 -0.083426557
54.628719 0.64342725 -0.10027127
49.296875 3.1309023 -0.094677083
54.144348 9.3211327 -0.09504579
57.236382 5.7777705 -0.10146959
54.784168 4.2798629 -0.10612804
51.931572 9.2312622 -0.1099821
49.626911 6.1345158 -0.11360499
52.664032 8.4882307 -0.11613569
50.314529 3.5165217 -0.11945904
49.649471 6.9918175 -0.12779742
52.444031 9.3872032 -0.12870477
49.298687 4.2660537 -0.13542095
49.408257 7.3365021 -0.13839136
55.61153 9.6603909 -0.14033641
50.634415 10.200294 -0.14270853
50.283047 3.4878838 -0.14601095
56.367432 7.2019577 -0.15305951
53.664467 8.0646477 -0.15341765
53.233677 2.424669 -0.15747131
49.607906 5.3031182 -0.15963358
50.973347 2.3231115 -0.16806322
50.547699 5.674468 -0.1681069
57.296375 5.2521744 -0.16818225
50.804749 2.9641371 -0.17161655
49.496876 5.5805922 -0.18547374
56.593704 9.7221346 -0.20566458
52.747932 6.4767103 -0.20609149
51.5979 2.3104835 -0.20745227
54.76152 7.8431711 -0.20813416
51.063301 4.0665226 -0.21949594
51.199638 6.0914612 -0.22250524
53.049725 8.2075109 -0.25144178
58.460979 7.157855 -0.25721514
49.22369 2.9643404 -0.25901422
51.508747 5.2336669 -0.25945002
51.496315 5.2360272 -0.26265106
49.657093 4.5720806 -0.28685662
51.447712 7.673945 -0.29068521
54.927448 8.1928616 -0.29581535
52.034634 8.5545492 -0.31824324
55.530735 6.6008005 -0.3267321
49.979836 4.030961 -0.38043803
51.647236 16.321413 0.33204234
54.311386 13.215851 0.32759622
55.20676 15.166001 0.32681865
49.296192 12.685622 0.32139617
58.715233 12.348757 0.31937832
50.703506 12.879115 0.31206208
51.328979 11.385135 0.3116422
49.840984 12.89292 0.30351812
50.821781 13.723043 0.2972756
57.93026 12.804288 0.29493546
57.823421 15.788532 0.28961864
57.167889 12.23262 0.28411758
49.354355 15.001552 0.27192917
54.118038 15.446447 0.27166986
51.151756 14.031657 0.26225838
57.251411 15.39172 0.26060143
57.240936 11.858037 0.2589207
53.439999 17.223852 0.25789803
58.816639 10.742851 0.24927242
52.040649 12.77381 0.22800061
58.123653 11.605436 0.22639965
57.464184 15.613523 0.22371414
50.618858 14.299679 0.21818374
56.715263 11.204887 0.19231808
57.310432 16.697968 0.18231012
57.707855 11.657034 0.18186219
56.895138 11.741526 0.14894345
58.912224 11.029414 0.14695022
57.771301 11.146217 0.080625139
50.359734 10.694871 0.076795511
54.372635 10.70453 0.058771942
50.638924 11.811573 0.036666673
54.166908 11.371191 0.031438924
50.534069 11.10217 -0.010404259
50.493843 10.806992 -0.018964445
49.313168 12.348146 -0.025419336
51.874428 11.517843 -0.068628803
54.41135 12.093291 -0.090527259
58.55801 11.53178 -0.13867752
51.150944 20.875576 1.8154583
53.390785 22.390787 1.8125341
50.722347 21.818689 1.7985251
54.119759 21.734985 1.7969031
50.924831 22.211582 1.7795018
53.279762 20.732677 1.7755231
50.415756 24.697996 1.7687383
51.82605 21.137003 1.7646046
51.282558 21.801647 1.7623975
52.87085 20.772854 1.7467508
51.190369 21.252558 1.7453562
49.308006 28.218008 1.7332392
50.705635 20.753952 1.6095135
49.90313 21.126595 1.5998604
52.349033 22.415754 1.596316
57.584362 22.676369 1.5494213
49.901047 20.761782 1.5136055
51.644398 21.069809 1.4870667
51.035984 20.885427 1.4458803
52.26046 21.716686 1.4269694
49.622856 22.175684 1.3791113
52.318111 20.774994 1.3461826
50.705353 20.858822 1.3396893
50.489902 21.542711 1.2485855
50.926991 23.378046 1.0225865
51.435398 20.871197 0.88458854
52.27216 20.780693 0.85718364
49.588863 22.262918 0.72763985
49.610825 21.124971 0.44807145
49.163681 35.940636 2.4124379
50.115211 31.062149 2.3603663
49.400459 31.227043 2.1506848
54.525509 43.017178 3.2520671
60.290348 -0.18746656 0.20198026
65.295326 4.5913811 -0.50623339
67.60939 7.729877 -0.51796776
66.791931 10.134239 -0.53829849
68.607353 8.4424763 -0.53908104
67.940262 5.2764201 -0.54259992
67.062599 9.7886982 -0.54623628
67.897957 8.2620735 -0.54885846
65.203796 4.3867545 -0.55170947
65.936348 8.5339985 -0.55874777
67.239532 5.562005 -0.56318718
68.276619 6.1917672 -0.56631964
66.78875 5.4447536 -0.56984305
66.714096 6.3514996 -0.57269573
68.873726 8.6209717 -0.58250821
67.432404 9.259903 -0.58433729
64.808891 5.8622398 -0.59190488
64.516304 7.8194308 -0.59382963
67.037262 1.5662873 -0.60336959
66.136688 6.6140127 -0.60742778
66.322433 5.3909144 -0.60895288
66.717644 8.7248917 -0.61636961
65.45179 6.4579563 -0.62375963
66.176201 6.1650262 -0.62946332
68.740784 6.0916862 -0.64292711
68.323433 3.2600038 -0.67347467
67.758484 8.6511021 -0.68579727
68.723289 7.302433 -0.69542742
67.737816 6.6905599 -0.69870228
65.724792 7.8247275 -0.70129359
65.679039 6.3282075 -0.7052651
65.095795 5.8049588 -0.71368724
65.827934 6.603827 -0.72472501
66.8116 5.6691289 -0.72703111
66.778397 7.860116 -0.73228675
65.372467 7.2222157 -0.73432225
67.508583 9.3334351 -0.74047053
65.241577 10.127605 -0.74185097
67.809998 5.8249755 -0.74495924
65.630508 7.3023291 -0.74798071
66.751709 7.3096375 -0.76293963
66.312492 8.1164351 -0.79682976
67.752861 7.1810951 -0.8003341
67.73597 6.3921843 -0.80447459
68.242157 5.9438658 -0.80729789
67.418137 8.7149096 -0.82192266
68.109787 7.8765574 -0.83771825
66.933304 8.397315 -0.83812445
65.742546 8.0674429 -0.84038782
68.924942 7.8213501 -0.91789454
67.074974 8.4584713 -0.93771738
66.992416 6.7368903 -0.95565206
67.345459 6.3383451 -0.97537941
63.599762 13.006289 0.20630027
66.326149 12.375232 0.19890547
65.784424 10.839166 0.19749251
68.169075 13.742005 0.18907227
62.853889 11.213287 0.1887095
65.089951 10.705187 0.18777826
65.104362 14.735434 0.18661393
65.327705 12.078995 0.18460746
68.138786 12.304606 0.18011601
66.920166 11.71314 0.17994002
67.844055 12.739164 0.17910205
65.327782 11.227283 0.17857994
63.79084 12.239229 0.17693463
63.259827 15.219678 0.17649078
64.299141 10.733727 0.17320333
66.78054 10.951792 0.17232907
66.925034 13.016858 0.17168766
60.281151 10.80385 0.17103857
60.451344 11.098546 0.16259223
67.246864 10.813097 0.15595175
68.732613 10.74732 0.15594071
67.817329 11.277834 0.15119429
64.334747 12.766758 0.15015128
61.162224 10.748958 0.14904723
59.137871 12.057508 0.14853169
63.308178 10.86156 0.14621995
66.774742 11.15786 0.14112048
68.8722 11.841584 0.13915707
63.699451 11.273586 0.13908072
65.65564 11.232644 0.13249524
63.270103 11.17592 0.12852652
60.764309 10.774036 0.12457527
64.617287 10.71 0.11260433
63.73452 11.900904 0.089221589
64.172615 15.137536 0.075357087
66.187256 11.788966 0.059883352
64.819046 13.831509 0.022541992
63.438229 10.793412 -0.0068427543
66.744957 11.64738 -0.0080879824
62.804741 10.789654 -0.0087578269
65.759537 10.89137 -0.013595078
68.568291 12.114552 -0.013792505
65.865112 12.40961 -0.017159708
61.144962 13.954186 -0.026494117
62.677246 12.057785 -0.027585691
64.794411 10.769171 -0.029885642
68.781555 14.549479 -0.036859747
61.962879 11.755718 -0.039692603
63.222965 11.01665 -0.050613765
64.493576 14.637762 -0.059704985
65.335846 10.797869 -0.072744489
59.823719 10.914163 -0.076624893
67.701874 11.14964 -0.08272212
66.165504 10.737777 -0.11018125
62.371967 12.488339 -0.11432592
61.527203 12.407113 -0.22446239
67.491768 12.15729 -0.26272404
60.638897 14.53515 -0.26480427
65.477692 13.198872 -0.29073739
65.787361 11.913748 -0.32497188
61.070984 14.61167 -0.4470523
59.814041 22.653923 2.7805061
65.481911 22.43475 2.766674
63.157993 22.288994 2.7593043
67.337753 21.063347 2.7572463
59.250381 24.720842 2.7552905
65.486671 21.598671 2.7535579
65.791275 24.341848 2.742219
65.884132 21.290874 2.7254879
64.316666 21.061186 2.7211809
62.920395 21.935856 2.7187574
62.615387 20.788681 2.6922679
63.95895 23.441465 2.6915445
63.143463 20.803806 2.6902592
62.329136 21.047264 2.6413195
62.847214 21.098867 2.6318164
64.810242 21.047859 2.6304393
64.804291 22.186054 2.6254344
63.286999 21.267746 2.6109791
63.511803 22.155493 2.605206
63.154926 23.885712 2.5891495
64.024551 20.978432 2.5412791
62.478569 21.684944 2.5131335
63.123055 21.67576 2.5025549
63.666302 21.344719 2.4979959
67.677124 21.253416 2.4595191
61.773708 24.922602 2.4527082
64.209999 21.863123 2.4347267
63.701942 22.363523 2.4084625
63.227791 21.771086 2.3961112
62.290638 20.835743 2.3952837
68.793602 20.747616 2.3682892
64.830162 21.090271 2.3667114
62.554771 21.869503 2.3251913
63.372921 22.196024 2.2850833
60.600346 21.608374 2.2666788
61.60368 22.575287 2.2582188
62.846275 20.732143 2.2418361
62.978024 21.470001 2.218466
62.480728 21.694777 2.1678138
68.164032 22.022125 2.1012106
64.652458 22.074886 2.0769339
63.232918 21.631041 1.9521346
60.643734 21.629436 1.9068925
63.108566 21.436007 1.7999128
62.240223 21.360966 1.7796726
60.236752 20.922272 1.6666975
61.82579 30.772589 4.1747403
66.713837 31.078524 4.169899
63.004684 30.889936 4.125308
68.137016 30.780449 4.1117702
66.44062 30.771935 4.1036901
61.331688 30.693638 4.1019177
68.726036 32.103264 4.0836434
68.447456 31.897764 4.0803051
66.390396 31.512281 4.0502286
67.364609 30.732014 4.0288506
67.894798 31.755249 4.0099406
67.553192 30.816469 3.9803088
67.113358 30.814722 3.9689939
63.942341 33.548798 3.9433522
66.590294 31.153353 3.8924396
61.856956 30.828602 3.8765132
64.896866 34.5952 3.719902
69.676849 0.22988741 0.93984127
71.085251 5.4790802 -0.2801207
69.86264 6.2648525 -0.28331268
69.232178 6.4499216 -0.29116276
76.084328 8.3952932 -0.29862574
77.270065 7.4275398 -0.31055167
78.194855 8.8997993 -0.31844056
76.568604 8.868556 -0.31940904
77.045502 9.1652479 -0.3223291
69.630867 7.2855062 -0.33089042
69.284927 7.6157179 -0.33181873
69.710167 2.5411499 -0.33523563
70.990463 10.571993 -0.35702041
71.31105 9.4159698 -0.35919264
72.467171 8.1174631 -0.40996093
71.106209 7.2039151 -0.42808604
69.833443 2.3969676 -0.44545156
69.764748 4.4748001 -0.4540945
69.664383 7.8074999 -0.51341319
69.613762 7.2820096 -0.5168938
69.40239 6.2422137 -0.52282584
69.550262 6.4384551 -0.52550364
71.186714 7.1965051 -0.52724248
69.275482 7.3159437 -0.52798527
69.080948 6.6272097 -0.54124331
74.181549 7.8192897 -0.54330331
69.240799 4.1645851 -0.56162542
69.961975 9.3478804 -0.62207353
69.799156 6.9160156 -0.63145167
69.237671 8.5985909 -0.64755511
70.154724 8.6496439 -0.64790326
77.697388 10.146124 -0.6547786
69.280952 7.7621703 -0.67484218
73.747192 10.202608 -0.69212854
69.266029 8.2430315 -0.70330018
69.754272 8.6100311 -0.71188146
70.615723 7.1447859 -0.73850131
76.048698 9.179204 -0.74285829
73.060921 9.8647661 -0.75617474
71.60273 8.9357109 -0.75637788
70.133995 6.8211746 -0.78145158
72.976929 9.7584486 -0.80812675
70.585693 6.9991994 -0.83668816
72.981789 8.9392252 -0.8617624
70.108231 7.1437602 -0.88981926
73.336784 12.2909 0.1171425
70.779472 12.75084 0.10875074
71.645149 14.561547 0.10811249
69.272858 11.895967 0.10574999
73.128174 11.734462 0.090041213
69.775215 14.830006 0.084304564
70.447021 15.554188 0.084280625
73.324219 12.653858 0.081016526
77.912781 16.784014 0.074177355
71.514694 11.04226 0.051885907
75.343178 11.841698 0.038866751
71.490417 12.29667 0.030936236
72.693344 12.311406 0.027295353
72.165825 14.457411 0.019228311
69.836563 11.262381 0.011080581
69.716202 13.233698 0.0090302126
69.499939 13.835173 -0.0061844788
74.853859 12.125725 -0.0073030018
78.651901 12.832644 -0.015566415
71.481277 11.165633 -0.024693182
74.215454 12.213734 -0.04546465
71.676735 11.376356 -0.05837553
69.924515 14.178032 -0.061032463
71.654358 12.447664 -0.062042534
72.140022 11.568173 -0.062859461
76.077354 11.403083 -0.062913761
72.576797 12.213024 -0.063453771
73.751961 12.391273 -0.065067358
73.254356 13.458197 -0.070155643
73.266617 11.790226 -0.070454977
75.426033 13.515882 -0.07521078
69.213631 12.536539 -0.077255547
75.600342 13.645597 -0.081455685
74.617577 11.233965 -0.08901336
69.326134 11.37651 -0.092446454
75.536415 11.652662 -0.097000092
69.582344 12.563828 -0.10478459
69.771172 13.924555 -0.10511726
74.497948 11.063269 -0.10592411
72.422455 12.14654 -0.11025533
75.207314 12.105728 -0.11339471
73.346397 12.429059 -0.11547377
78.014328 13.207408 -0.12993608
69.291862 12.348248 -0.13192306
71.245102 12.029737 -0.14958136
74.242607 11.627807 -0.16064031
70.237808 11.21212 -0.16224864
76.093552 12.289858 -0.17754614
74.68924 11.713421 -0.18346766
73.090591 11.367229 -0.1924388
73.690125 10.787518 -0.20862429
73.789078 11.259315 -0.20906737
76.906387 12.28012 -0.22097154
72.956276 12.742537 -0.22430404
75.908691 12.113033 -0.22470887
70.873756 12.977089 -0.22776891
72.8899 11.322021 -0.22848581
78.827225 11.466846 -0.23708937
76.739883 11.221677 -0.2735813
77.955574 11.652535 -0.32302773
72.808441 11.525603 -0.32712105
76.671379 10.7482 -0.37762201
70.902473 11.494013 -0.4328889
78.89183 11.585448 -0.44587609
77.465218 14.991106 -0.46719357
72.027542 13.161788 -0.46957123
75.912392 11.081814 -0.47773573
75.817795 14.401809 -0.49934369
75.837585 14.414814 -0.52877933
72.085098 13.233885 -0.53476948
77.729752 10.85704 -0.55458176
69.604088 11.883302 -0.55460459
71.617462 12.330597 -0.55945718
79.056793 11.675292 -0.56806004
69.237396 11.573931 -0.58340985
75.274849 10.924285 -0.59010327
77.028008 11.259736 -0.60752749
76.776382 11.104659 -0.62150234
75.80014 10.953063 -0.67324299
76.137756 10.913471 -0.71835303
77.721069 11.455619 -0.72242308
73.730148 13.336057 -0.79813409
78.738022 10.986556 -0.82661235
77.149002 20.810369 2.8528628
77.897224 24.566465 2.8510008
74.644943 23.098602 2.8440199
69.454018 21.198339 2.8316281
70.534492 21.727299 2.82482
69.563454 21.923149 2.8233864
72.354309 21.276609 2.8007383
78.592712 20.994053 2.7918394
75.59845 21.645401 2.7807734
78.70636 21.703827 2.7601855
76.760529 20.717228 2.7597566
75.952087 23.274445 2.753005
78.30899 20.812794 2.7385821
73.960411 21.530071 2.738512
71.092972 21.471569 2.732326
74.417976 23.845636 2.7154477
72.665192 21.223045 2.7140729
75.935951 22.171793 2.7102532
76.361168 24.268948 2.6960955
71.689461 21.256493 2.690429
69.15097 25.571768 2.6884949
76.113541 21.809265 2.6790917
72.098213 20.949411 2.6723909
71.200745 21.580486 2.6671736
78.867645 23.623402 2.6635478
75.626862 21.422508 2.6632645
75.187775 21.90662 2.6606555
74.067169 21.540226 2.6589861
78.35437 21.120815 2.6582801
71.877045 22.939537 2.6386924
77.757896 21.101698 2.6264088
72.045135 22.759026 2.6252246
73.566452 21.302259 2.6180472
76.149536 21.33634 2.5813727
73.121864 21.67314 2.5584579
72.890343 20.83802 2.539856
69.993942 20.708958 2.5148273
78.256203 23.755196 2.4995208
77.989159 21.316217 2.4990375
71.794624 22.863182 2.482707
73.783211 21.574459 2.4773018
70.954384 21.175648 2.4769607
73.297188 21.778534 2.4532473
77.733055 20.735178 2.4513109
71.311188 24.08337 2.4511507
76.523041 20.875996 2.4468005
78.425026 21.423361 2.4057722
76.352379 21.009354 2.3990498
76.831978 23.600988 2.3984189
71.667511 20.837608 2.3975825
76.520897 22.196726 2.3872731
73.740234 24.782089 2.3474
73.069206 21.433083 2.3403077
77.225365 24.865074 2.3100495
78.623474 20.719517 2.2875929
72.696625 22.851412 2.2386091
77.864937 24.40815 2.0716536
74.275047 21.104 1.9736191
77.502914 23.464237 1.946048
73.352402 21.103279 1.7706904
76.349915 33.512913 4.0935807
72.332748 32.088707 4.0900669
70.879448 34.086479 4.0728116
73.161179 31.213589 4.0548043
69.868019 30.772745 4.0484581
69.975945 31.177256 4.0307069
72.740463 30.816818 3.9973683
75.770706 31.081034 3.9779768
75.881668 32.30352 3.968225
70.846359 30.998674 3.962857
71.034859 31.457148 3.9608378
69.182205 31.460279 3.9606419
76.742561 31.704996 3.9501617
69.418037 31.84907 3.9488797
74.060944 33.915943 3.9449036
72.437592 30.931314 3.9272747
76.40477 33.860275 3.9059501
74.116699 30.788786 3.8933918
69.971252 30.935213 3.8745215
77.22583 30.718441 3.8500466
72.649902 31.734238 3.8099918
70.835632 31.325895 3.8040533
77.414352 31.34973 3.7895648
73.808395 31.194962 3.7059414
75.572319 41.145283 4.6166072
82.462517 6.9360647 -0.01719168
86.59314 8.3410349 -0.099670775
86.850113 9.250247 -0.13732938
87.138199 9.9906216 -0.14220083
84.277962 9.5607004 -0.14304431
80.382401 8.6703367 -0.15213421
80.835899 8.4612646 -0.18454638
83.38887 8.7140818 -0.2880002
80.873383 10.540194 -0.2989006
83.616112 8.3849573 -0.44717896
84.246353 11.722464 0.66664761
82.278931 11.252556 0.65696847
83.071205 13.87689 0.64821911
79.288734 14.425121 0.64660746
82.135513 11.800288 0.64437449
87.571701 10.883558 0.63870621
87.388306 12.783281 0.63008261
79.94574 12.287 0.62862355
88.578827 12.917078 0.62041342
82.493614 15.357527 0.61861908
82.442383 12.302605 0.59629941
79.218094 12.252869 0.58153886
81.300995 13.377843 0.57667899
79.331741 12.872569 0.56524056
82.095428 13.025139 0.5578506
83.408173 11.996751 0.55176514
85.381348 15.938588 0.52939183
88.774002 16.669001 0.52043635
84.115868 15.399384 0.51543117
81.255653 12.034218 0.51066136
83.964729 15.308111 0.4999738
86.654121 11.116194 0.49628815
80.910583 14.093884 0.49181873
79.88501 13.117314 0.45172858
82.802864 14.239761 0.44860345
83.23822 12.141747 0.44313663
81.830093 11.565738 0.44290662
83.649689 12.650781 0.44282994
88.242096 12.398369 0.43819425
86.409447 13.274169 0.41326907
84.199852 11.675524 0.39682803
81.136055 14.040874 0.39084333
80.242691 11.255304 0.38933244
80.24585 11.685013 0.38204613
88.297012 12.628868 0.37738967
79.094185 17.647919 0.37308121
80.690834 11.726007 0.36871997
87.453064 12.472809 0.36123493
87.896324 13.328594 0.35442305
79.797432 12.735868 0.35065565
80.209274 12.326641 0.34543499
81.774551 13.015681 0.34361926
79.958382 11.891678 0.33442041
82.763687 12.12158 0.31497914
85.695198 15.874247 0.31393215
79.861031 12.25672 0.31037673
81.186813 13.844884 0.3099488
84.059525 14.11839 0.28297609
83.698776 11.109943 0.28061709
79.246277 12.777729 0.28059605
80.930206 12.307769 0.275051
79.346153 13.081985 0.27194896
86.145378 12.557774 0.26190999
87.384384 11.545295 0.25615475
81.298538 13.389364 0.24448472
79.108475 12.083136 0.23265833
80.97139 13.449518 0.22760485
83.143051 11.9733 0.22398652
85.898926 12.889221 0.20654775
85.088829 15.879257 0.19634825
79.98896 18.331474 0.1955837
84.121635 14.633287 0.19456899
87.856255 16.755842 0.16326977
80.939453 15.097005 0.16173156
81.737793 12.123005 0.14963473
81.044617 15.149979 0.13859646
82.539413 11.301264 0.12705757
82.98642 10.990563 0.10467245
84.53434 14.997695 0.094229214
80.544975 10.777598 0.076948866
83.338646 11.579065 -0.026196601
79.203491 12.635443 -0.062754363
81.217499 13.406494 -0.069261879
83.352379 12.126015 -0.075110942
80.786072 11.377273 -0.141947
79.416115 13.020904 -0.14577757
79.7883 11.103157 -0.14807196
87.107613 15.142971 -0.19615979
80.746712 13.945271 -0.20919661
84.412132 13.00897 -0.23650275
79.305786 11.785214 -0.28066048
83.364311 12.613767 -0.32928538
80.100182 12.074259 -0.3549785
80.846809 11.787493 -0.36276558
81.635506 11.817069 -0.37876141
86.306259 19.779699 -0.39071366
81.298416 11.799788 -0.48467571
85.561798 13.02544 -0.51099658
80.341194 11.645576 -0.5884192
82.355484 12.322095 -0.62224865
83.560738 12.409133 -0.64472103
82.265099 21.367189 2.6821251
83.873985 23.203629 2.6818073
85.254219 21.171303 2.671314
88.175674 22.26679 2.6707792
85.809608 22.610611 2.6691291
88.147362 23.864424 2.6596766
86.259651 23.670523 2.6556747
79.230194 24.061954 2.6487489
82.345619 23.009556 2.6459379
83.682472 22.643747 2.6393261
81.34481 21.561661 2.6337326
80.452522 20.957411 2.633069
88.521355 20.756527 2.6312766
86.537399 24.398186 2.6296346
85.623848 23.795691 2.6151364
87.144951 25.14629 2.6041358
87.233093 21.863998 2.5882378
86.389236 22.64043 2.582201
88.019211 24.333166 2.5799012
82.574738 21.898304 2.5691404
83.192558 23.713203 2.566988
84.248512 24.02408 2.5666633
81.703323 28.806171 2.5663159
84.558479 21.784554 2.5603902
82.713966 23.550747 2.5377152
84.731987 29.877209 2.5365462
82.39267 21.782887 2.5365181
83.624992 23.546373 2.5228534
85.79966 24.337994 2.4959791
88.208313 21.187201 2.4928672
86.389008 27.066105 2.4911962
80.275124 22.932266 2.4896283
84.572517 21.79702 2.4864361
83.202866 23.595404 2.4816771
85.888855 22.210312 2.4805059
87.94326 22.693842 2.4797795
83.368607 22.449827 2.4763739
84.556107 22.929358 2.4696774
84.740639 22.099012 2.4691317
84.320969 22.690203 2.463871
84.74408 29.797262 2.4584754
81.497505 20.95208 2.4531639
82.280899 22.958349 2.4465959
84.10289 23.812344 2.4454916
88.731987 21.213634 2.4399815
82.788536 23.346415 2.4380877
81.613594 21.180176 2.4264238
82.42704 21.626461 2.4257896
85.721558 21.158611 2.4189291
83.046486 22.604826 2.4160883
82.349823 20.895834 2.4004612
84.656044 23.194939 2.3991101
87.956299 21.410524 2.398809
85.049194 22.833784 2.3965588
83.820374 22.455301 2.3963506
84.912819 20.916309 2.3954859
82.423447 22.325321 2.3939309
85.691498 23.168194 2.3916416
79.375435 21.46702 2.3717077
82.188461 21.410616 2.3607697
80.807007 21.14674 2.3289595
80.269417 21.16206 2.3225274
84.231247 23.25411 2.2889552
82.694374 23.523579 2.2806234
83.966217 22.683424 2.2798965
83.803795 20.880539 2.2787023
80.881531 21.747929 2.276443
81.858528 22.044098 2.2565098
81.08255 21.217319 2.2433262
82.17485 25.962919 2.2328796
87.830032 21.653023 2.2292821
83.148407 24.722628 2.2254684
81.040161 21.741449 2.2208738
87.728844 25.423431 2.2180641
84.886566 24.689461 2.2099559
82.660156 22.671175 2.2058175
79.67131 21.08173 2.1815257
86.955971 20.873608 2.1167204
80.940826 23.936666 1.9793063
82.866844 22.968534 1.9785812
83.031113 22.895679 1.9591191
80.44899 24.62924 1.8800918
80.839073 20.780956 1.7280869
81.319672 20.882179 1.6692376
84.830978 31.706854 4.3205166
88.251633 32.792961 4.3157578
84.751953 31.156389 4.3151779
86.889771 30.706303 4.3142891
79.142319 33.088631 4.3139925
84.274895 30.703503 4.3102641
87.733902 31.739407 4.3034391
80.715591 30.681355 4.2953782
86.303284 33.812881 4.2808199
87.769875 30.766886 4.2797756
79.673256 33.925629 4.258409
84.728836 33.149136 4.2447052
88.389153 36.730698 4.2376585
80.655624 31.278795 4.2330709
84.08741 34.239861 4.2217975
81.848785 33.268948 4.2155166
88.686325 35.020473 4.2145619
82.820847 31.353214 4.2079368
79.323563 35.566525 4.1954365
86.365234 35.144699 4.1926851
84.770241 33.626759 4.1891499
88.025276 32.340229 4.1745358
85.07386 31.232681 4.1641221
79.581314 30.77738 4.1575346
84.807945 30.730234 4.1393037
87.308998 33.395084 4.1363454
86.737259 34.129185 4.0817904
85.024467 32.019058 4.080246
84.091713 33.179497 4.0538764
82.285126 32.265697 4.0400925
82.611526 32.085751 4.025053
87.780289 34.89661 4.0033507
80.033569 32.431965 3.962137
80.490822 30.872149 3.9599204
81.074104 30.843756 3.9450259
83.648643 31.562883 3.9363811
80.231255 31.074387 3.5830295
81.351189 31.257668 3.5269876
80.011696 41.280159 4.5688376
98.536385 -39.31871 2.2873576
91.021149 9.1044893 0.92184657
89.195442 18.395782 1.6019571
95.42495 19.772453 1.6017445
90.449776 17.707956 1.5932825
90.771057 12.441789 1.5678393
97.193176 13.637858 1.558363
89.473335 15.538541 1.4879701
89.499199 14.524691 1.4811643
89.461098 18.403008 1.4783751
95.46875 19.786121 1.4690906
89.563217 19.128462 1.4559493
89.586563 18.600296 1.4387308
90.318878 13.21349 1.4302835
95.605125 13.805852 1.428635
93.217598 14.418798 1.4157797
90.569611 11.625043 1.4025371
91.174072 19.903875 1.3924239
89.71035 14.680958 1.3853149
89.35508 11.467933 1.3770461
92.399284 15.83494 1.354853
90.08741 15.002254 1.3320814
89.726402 14.156679 1.325912
89.664474 11.749176 1.315966
96.712555 15.859837 1.2709775
89.10498 15.443704 1.2562429
91.353951 11.77904 1.2555889
90.322548 18.481693 1.2424557
92.840919 15.565913 1.2256588
96.021172 17.496092 1.2202448
89.783386 13.083088 1.209633
91.108437 14.733886 1.2069546
90.220581 11.653458 1.203617
89.392502 11.808735 1.1942785
89.530998 17.055357 1.1489019
91.08136 12.829464 1.1045001
89.142097 12.114873 1.0948009
90.839508 14.241442 1.0519128
90.792519 15.555341 1.0119555
90.356209 11.659093 0.97534543
89.839447 12.760297 0.83591527
89.06971 12.880764 0.80120802
91.222534 13.764761 0.79595751
90.826355 12.855298 0.7741099
91.763336 13.775316 0.75565064
97.726357 20.193573 0.70707721
96.643089 18.869259 0.67460382
91.681 13.269793 0.6624319
89.347824 17.033634 0.62103194
94.421471 18.02474 0.55445015
94.421638 17.953377 0.50139683
94.139915 18.085152 0.45091563
92.687363 21.706585 2.9447391
93.267578 23.717621 2.9428501
90.125183 25.314064 2.9409885
89.976173 24.620186 2.9354963
93.569328 21.710241 2.9343007
93.580009 29.19301 2.9312325
91.8461 21.688419 2.9308171
93.397911 23.421431 2.9293694
93.20224 25.116152 2.9208317
94.654137 22.576843 2.9184647
94.737061 26.955368 2.917068
89.229248 24.588388 2.9147692
90.785034 22.528109 2.9118764
91.732895 22.154751 2.8999286
94.742996 27.013636 2.8995967
89.733223 25.162914 2.8907428
91.312706 26.697418 2.8818836
96.07563 25.667439 2.8813334
91.57148 26.088324 2.8791671
93.547256 23.250334 2.8755484
90.021652 24.642214 2.8697548
94.155151 26.402981 2.8685544
91.233688 27.314388 2.8676634
91.336052 21.094721 2.8659918
90.319771 21.993631 2.8639157
91.271271 23.144836 2.8582482
93.055145 24.902384 2.8581884
89.839203 22.557571 2.8564868
89.90226 24.094757 2.8543031
91.88488 29.284954 2.8460085
89.537529 26.218969 2.840884
94.877846 26.245829 2.8330019
89.794128 22.140442 2.8310061
90.756012 22.125439 2.8254721
92.001778 23.282892 2.8194983
91.140594 22.208702 2.8165894
92.541351 25.433313 2.8139007
95.66011 26.65493 2.7986841
93.902641 26.626549 2.7933156
93.4021 26.832621 2.786458
93.490936 26.264122 2.7860737
98.440453 22.166903 2.75207
92.751457 26.322968 2.7517762
90.460083 22.878248 2.7463233
92.186668 23.602587 2.7461584
90.23027 23.196081 2.7452819
94.440361 23.08016 2.7393594
90.784721 23.306633 2.7300503
91.065613 22.552469 2.7133281
91.416466 28.416603 2.7092865
91.78598 20.688759 2.7049756
92.231667 24.348246 2.7043214
95.157272 20.706532 2.7003064
98.176765 24.38776 2.6942647
93.204651 22.369726 2.6897621
90.879242 24.947527 2.6754038
89.499413 25.009199 2.6739707
98.242905 21.398327 2.6674521
90.915695 21.983755 2.6648307
97.563316 22.145451 2.6445069
93.702316 25.259401 2.6382425
89.958588 23.976574 2.6203442
89.351349 22.469301 2.6189632
91.903328 23.002304 2.6137455
91.13681 20.778257 2.5994003
98.541214 22.126102 2.5806935
93.639244 21.374918 2.568444
89.440033 22.538357 2.5678139
91.035019 21.761688 2.5672662
93.282143 20.693815 2.5668037
97.167419 22.519964 2.56043
93.197517 21.049219 2.5085433
89.277367 26.370691 2.5069866
97.23053 22.557404 2.4759293
89.516266 22.656921 2.433336
92.981178 21.541122 2.4302847
89.998505 24.100349 2.430052
90.221466 26.437857 2.4264374
93.030006 22.284191 2.4243228
93.328125 21.121763 2.3859372
94.591736 23.020781 2.3682051
90.853355 21.694708 2.3517342
97.648865 22.201586 2.3468409
93.413612 23.22641 2.3452849
91.295647 21.283724 2.3024275
92.645897 21.399275 2.2930536
94.542862 22.968491 2.1933
97.445328 22.194555 2.1727524
94.483788 22.941122 2.1440337
95.003067 20.83596 1.9894441
94.911331 20.903755 1.9477617
92.744461 21.314482 1.9185226
95.898499 33.577225 4.3378553
97.159004 32.265068 4.335011
96.409973 31.102663 4.3305159
89.070099 33.617393 4.3284454
93.397102 30.951077 4.3276787
92.121223 32.976643 4.319603
95.512238 35.756962 4.3126192
91.692467 34.674362 4.3119531
95.31218 35.330139 4.309886
96.771751 31.808859 4.3084726
92.697319 32.318752 4.3065963
92.866592 38.130821 4.302907
93.406395 31.06138 4.2903209
96.359596 32.238243 4.2841635
89.117424 33.484856 4.278131
93.189987 38.274437 4.274302
95.935104 31.128803 4.2719345
96.311226 32.665848 4.2691107
92.535057 33.35516 4.2570815
91.666 31.155212 4.2555456
98.268242 37.882259 4.247745
89.30471 31.866867 4.2471886
96.563858 31.13685 4.2410574
98.252289 30.960035 4.2376413
92.743736 31.292116 4.2327294
97.977921 36.369865 4.2326431
98.757759 31.714251 4.2261186
89.827888 33.289288 4.2054772
98.146873 37.23851 4.2037654
94.622398 31.753435 4.1750746
94.104507 31.489754 4.1552653
95.594467 34.875298 4.0929661
93.237602 32.17384 4.0137496
93.987206 31.362091 3.9870477
94.715172 37.09988 3.9827027
93.151863 32.095917 3.982636
95.604561 34.952938 3.9782758
97.730751 34.694702 3.9774389
96.795036 31.849205 3.9432552
96.021332 30.709898 3.8711083
98.819717 34.924599 3.8590047
98.329178 31.23444 3.7349849
91.991776 31.402443 3.5709724
97.273628 31.84906 2.9744501
92.914627 30.780931 2.928617
91.519493 30.835024 2.3713934
93.720062 41.398613 4.5485463
95.058853 42.291809 4.4804378
93.769791 41.426476 4.4426374
96.022011 40.883541 4.4424534
94.928528 42.647717 4.4283233
95.017441 41.084541 4.406476
104.68776 16.2701 2.6093311
107.56288 19.269491 2.5997815
99.372406 16.421041 2.5973475
104.269 17.325523 2.5788741
99.617477 16.242741 2.4981129
105.39214 18.702131 2.4809947
104.10316 15.633196 2.4749844
104.97552 17.308523 2.4738326
104.08093 17.742123 2.472213
99.692383 17.300911 2.4661779
99.644623 15.996876 2.4277039
102.33416 12.921371 2.3821909
100.23718 17.00528 2.3685365
101.59595 17.319054 2.3603172
100.12167 16.799843 2.3430805
105.91573 17.506353 2.3364756
100.8025 17.575893 2.3334994
101.47061 19.274521 2.0187311
105.76839 22.327662 3.2573767
108.61521 24.221684 3.256104
108.58348 22.187704 3.2545643
108.79049 21.620447 3.2544823
107.84348 22.436338 3.2542841
100.31927 24.337997 3.2540605
101.78507 20.859861 3.2500989
105.73412 21.281372 3.2500343
107.57006 23.454247 3.247067
102.80238 20.890148 3.2461371
106.30143 21.205933 3.2412136
108.25857 22.189793 3.2396913
107.28396 22.412613 3.2385962
104.84401 21.776773 3.2377841
107.04929 22.608496 3.2356951
105.41422 28.587368 3.2294338
99.841919 20.801256 3.2274613
100.22607 20.839857 3.226577
106.79183 21.829006 3.2222543
101.15723 20.838472 3.218586
104.27058 21.256905 3.2160511
103.1466 27.767658 3.2144156
106.67876 21.179211 3.2008164
101.72728 21.194771 3.1774936
103.69719 21.712194 3.1761322
106.16068 21.869574 3.1743782
106.79042 22.616741 3.1719866
99.456017 24.282665 3.1674573
105.30841 20.747448 3.1670151
104.22036 20.823822 3.1548717
105.15578 21.217619 3.1504834
108.34599 21.754517 3.1301579
105.07387 21.91851 3.1262233
108.43146 20.826778 3.1227427
104.26714 28.566793 3.1173949
107.39838 24.814657 3.1154053
105.98188 25.849331 3.0955586
102.33547 20.9443 3.0661507
99.779861 21.041651 3.062881
100.80544 26.523706 3.0524244
108.13094 21.395414 3.0380313
101.89871 29.011574 3.0189922
108.61832 21.743639 2.9993658
101.87712 21.174994 2.9916408
108.57256 24.087364 2.9857171
104.59138 21.047661 2.9827619
107.2585 21.651203 2.9769449
108.3455 21.614971 2.9769278
105.01986 21.580439 2.9734457
100.10702 24.406567 2.959682
105.62467 20.706001 2.9590747
104.74837 21.84214 2.95293
107.32365 21.479347 2.9362173
102.90609 20.875147 2.9361284
108.06122 22.155739 2.9276893
105.24979 21.308916 2.9234965
104.3873 22.703724 2.9190524
106.83979 22.82686 2.9116769
99.922668 20.842987 2.8953381
107.67528 20.712711 2.8927505
108.02748 23.186983 2.8880301
103.32573 20.751919 2.8878136
107.89021 21.326233 2.6611197
100.8575 24.633144 2.6297522
101.56798 29.037775 2.5953503
101.93088 24.170174 2.5516942
99.330406 23.087044 2.502311
108.67989 25.757433 2.4107478
108.27541 33.810764 3.7319336
100.52351 31.293921 3.7317748
106.6132 34.062752 3.7258842
104.56238 31.858784 3.724329
106.38957 37.570179 3.7225614
106.2048 37.334194 3.7212398
108.11794 37.293331 3.7202215
102.00784 37.323566 3.7146692
99.440102 34.663754 3.7142305
99.338493 35.974281 3.6902072
108.91337 31.580622 3.6740944
105.20366 37.169487 3.6701934
105.22447 34.915932 3.657011
107.12669 37.312698 3.6065629
105.42125 35.576878 3.5996594
105.06587 31.397327 3.5901074
107.56026 36.41045 3.5893197
103.12157 36.763588 3.5767086
102.42808 33.997875 3.5766485
104.70093 32.420643 3.5582027
105.51096 34.145855 3.5489933
105.64776 33.949257 3.4863195
99.639786 35.820721 3.4811487
104.25478 33.63073 3.475981
104.1469 30.942211 3.4684844
108.18856 35.643162 3.4625263
108.8354 32.967716 3.4607408
108.34817 33.863117 3.4554296
106.39388 39.471611 3.4104247
105.43053 34.177765 3.4083986
105.71939 35.932926 3.3928943
107.17559 35.529774 3.3543622
101.47575 34.573036 3.3306944
107.68874 34.455063 3.2440159
105.78252 32.201408 3.1227283
105.19341 34.937912 3.0369816
108.554 40.993584 4.3740792
104.08145 44.845581 4.3382959
103.09088 45.241806 4.3325386
103.62224 42.929874 4.3089571
104.74419 44.818302 4.3070288
103.94698 44.930904 4.1375241
104.06786 45.196682 4.1230426
108.25815 40.798565 3.9993796
101.42175 51.310314 4.6526771
113.14418 18.292587 2.6087358
112.7313 17.530136 2.5956867
115.02748 18.332573 2.5219643
109.90739 17.292458 2.4962215
112.85906 19.61293 2.4074299
115.4007 18.92823 2.3880088
116.94177 21.241892 3.0552483
109.46377 20.857683 3.0459926
112.29554 22.950258 3.0454292
112.28719 24.086905 3.0382848
110.59847 21.22909 3.0240963
111.27346 21.452158 2.9984896
116.28642 21.35537 2.9974442
112.96236 20.70573 2.9833322
112.52898 22.800671 2.9780319
110.2532 22.098488 2.961889
115.58011 21.519926 2.9615791
113.10107 22.613014 2.96104
112.40373 23.844486 2.9594233
111.35367 22.421286 2.9552281
116.17413 23.458193 2.9519408
109.79911 21.88796 2.9500399
111.85645 25.118322 2.9474769
113.04333 22.488096 2.9470537
115.26606 24.073385 2.9350991
112.11729 21.091629 2.9328184
110.19491 20.848679 2.9266057
111.57352 22.796768 2.920423
110.17204 21.831354 2.9109409
109.2505 21.744896 2.90908
112.7009 21.79224 2.9078846
114.77409 22.569359 2.906215
109.53935 21.281034 2.9006994
115.07507 23.088068 2.9003243
110.66673 22.661026 2.8984058
112.38558 22.948412 2.8982723
110.28334 21.053406 2.8772392
111.86442 21.172514 2.870122
118.83852 24.97698 2.8493946
112.86265 24.174828 2.8173482
115.82951 22.303089 2.8026583
109.89069 22.28554 2.8022699
111.10791 20.831881 2.796407
114.47884 21.008883 2.7770607
115.18386 23.689117 2.7682257
109.71439 20.766294 2.7521005
109.29323 22.21488 2.7270989
111.74761 20.829971 2.7001932
110.88684 22.407988 2.6953785
109.29942 21.442724 2.6799989
110.61407 21.895809 2.6329734
116.28165 22.283487 2.5939708
110.01373 30.929188 3.4851463
115.11355 34.524685 3.4847729
116.05523 31.970421 3.4841261
118.15208 36.238113 3.4758108
118.12215 32.345867 3.4735811
112.42607 33.680115 3.4710002
114.53281 34.34491 3.4660501
114.23449 30.991755 3.4558349
115.82819 31.235197 3.4544988
114.99563 32.26442 3.4541156
112.44011 33.365269 3.4524405
114.41242 34.319847 3.45
115.61278 31.778784 3.4465482
117.6641 31.152029 3.441293
113.71556 35.018967 3.4356558
117.84348 33.083736 3.4323254
110.32063 32.364525 3.4244976
117.27734 30.71286 3.410079
114.56847 35.115932 3.3859754
109.91013 30.850657 3.3849857
114.75832 40.218826 3.382936
112.15134 30.771357 3.3828249
118.04968 31.927681 3.3811285
117.34039 31.561438 3.3721912
111.20259 32.97929 3.3705211
114.94391 31.359545 3.3475294
