# .PCD v0.7 - Point Cloud Data file format
VERSION 0.7
FIELDS x y z
SIZE 4 4 4
TYPE F F F
COUNT 1 1 1
WIDTH 1463
HEIGHT 1
VIEWPOINT 0 0 0 1 0 0 0
POINTS 1463
DATA ascii
-71.044518 40.765263 -0.75402266
-63.435909 36.945042 -0.75814831
-71.346138 38.848076 -0.75929576
-69.956169 39.222359 -0.7680642
-71.326157 41.634727 -0.92290121
-71.181763 51.279972 -0.72176182
-67.787018 46.33007 -0.72200233
-64.811203 50.682716 -0.72208565
-64.523331 44.468239 -0.72225618
-68.758049 49.773109 -0.72610128
-68.692863 50.725536 -0.72728705
-63.389435 49.49028 -0.72846788
-67.356216 51.159271 -0.72914565
-70.36924 49.933575 -0.72922415
-69.581879 48.195858 -0.73032904
-65.244347 51.720867 -0.73402858
-67.278 48.226257 -0.73539156
-64.905891 42.454506 -0.73700988
-66.046379 43.221634 -0.7376079
-69.693588 49.743725 -0.74065429
-66.252815 48.198654 -0.74389005
-65.271004 49.221863 -0.74416101
-69.370529 51.782722 -0.74876863
-67.899643 51.060112 -0.75086319
-68.702827 42.89513 -0.75405484
-62.863823 46.895771 -0.75429744
-64.694672 48.696899 -0.75604081
-68.77832 48.733227 -0.75610459
-71.335907 49.838097 -0.75657576
-68.78257 51.200272 -0.75735879
-70.662888 51.743324 -0.75830775
-70.201881 51.259865 -0.76524943
-67.264435 49.388443 -0.77143639
-67.719131 47.65078 -0.77243161
-65.886215 44.49324 -0.77422136
-70.616096 48.7132 -0.77509576
-66.859116 47.90699 -0.77514493
-69.206444 51.360901 -0.77826881
-70.735893 50.646862 -0.78128386
-67.38887 50.590519 -0.78551406
-63.93248 47.774036 -0.78933918
-67.032272 47.317619 -0.79179436
-70.826027 49.677273 -0.79298109
-63.998905 50.320667 -0.79367483
-63.211369 50.571526 -0.79770106
-65.816521 48.603535 -0.80397916
-65.762177 51.17514 -0.80468434
-69.130722 49.74892 -0.80623209
-61.855576 48.613426 -0.81635362
-64.155518 50.229229 -0.82068866
-62.57011 48.685989 -0.82706225
-71.154442 51.698498 -0.82841951
-67.687874 49.375835 -0.83554679
-66.439445 49.775867 -0.86373049
-70.800423 51.295132 -0.87492847
-64.122643 49.402691 -0.877891
-67.595474 50.954571 -0.88935566
-66.287445 47.672741 -0.90581131
-66.435738 52.030025 -0.94503665
-64.578568 48.353069 -0.94879335
-61.791851 48.365704 -0.94914532
-62.716919 49.422592 -0.99066526
-69.265724 52.302769 -0.8004266
-71.191612 57.20702 -0.80162495
-70.384468 58.928795 -0.80366749
-64.14846 54.600899 -0.81620687
-67.895142 52.409798 -0.81945819
-64.957092 61.132771 -0.82115251
-61.814926 61.355484 -0.82163811
-70.410164 59.0648 -0.82469243
-64.116135 55.400074 -0.82802474
-68.855865 58.21743 -0.82915276
-70.669968 53.200378 -0.82917708
-65.308533 61.068584 -0.83213884
-65.931145 52.076591 -0.83437502
-61.749039 55.32164 -0.83578271
-69.807922 53.678917 -0.8402679
-62.440006 53.972748 -0.8408609
-71.095337 59.312279 -0.84372544
-63.878788 59.917618 -0.84911913
-62.07798 55.506657 -0.84950149
-70.090714 56.70665 -0.85193104
-62.244759 57.974178 -0.85571951
-69.682899 53.278831 -0.85635871
-61.508987 56.03434 -0.85669249
-67.424713 55.613144 -0.86090159
-68.995621 56.725975 -0.86501586
-68.863983 52.801403 -0.86663544
-63.772301 53.389927 -0.8679831
-61.625278 56.593037 -0.87086868
-71.363228 58.692551 -0.87330818
-67.430489 58.017216 -0.88177401
-69.732193 52.431877 -0.88755339
-69.10891 53.846436 -0.89241076
-64.173866 53.439659 -0.89790809
-69.730064 56.247864 -0.91835624
-69.041924 52.649078 -0.92117786
-64.824608 56.12138 -0.92477763
-69.046043 59.266312 -0.92788857
-69.736046 56.661327 -0.93095022
-66.607254 55.576702 -0.9376412
-70.462929 54.09354 -0.94236934
-63.598679 56.603859 -0.94744831
-64.258865 61.957344 -0.95920217
-69.988449 54.178997 -0.96021932
-63.515808 56.430454 -0.97579849
-70.956017 59.290562 -0.99625677
-62.733246 63.301392 -0.62202513
-61.381138 71.934875 -0.63210601
-69.88604 71.354309 -0.63372821
-63.985497 63.100857 -0.63812673
-67.417442 69.93943 -0.64201689
-61.754677 70.678162 -0.64626342
-61.734695 64.337677 -0.64892328
-70.147186 70.217232 -0.65597528
-63.266354 64.989792 -0.66993934
-68.669876 62.719963 -0.70784366
-65.638573 64.667641 -0.70835966
-70.230141 62.347523 -0.71319187
-65.386612 64.270355 -0.75257331
-65.268799 64.570312 -0.76434702
-65.038757 62.523563 -0.80924362
-70.852226 62.287678 -0.83384681
-64.877678 62.553738 -0.8370738
-70.338966 65.075233 -0.85760564
-63.599808 62.904385 -0.8621552
-65.147697 62.137978 -0.88931179
-62.6819 62.213585 -0.95749199
-65.426483 63.334286 -0.96674234
-63.686378 65.232094 -0.97711122
-70.321434 79.784592 -0.75813466
-70.790329 80.578659 -0.76179498
-62.180515 79.269203 -0.7641117
-67.175217 79.529297 -0.76576734
-69.173592 79.927528 -0.76619434
-63.886765 75.759048 -0.76732516
-69.334099 78.932678 -0.7697103
-62.285576 81.336555 -0.77170241
-70.43232 80.274399 -0.7760759
-63.711609 80.684319 -0.77920908
-70.84008 79.747444 -0.793338
-69.379662 80.044746 -0.80715483
-63.223999 81.145302 -0.81196958
-61.473404 81.414429 -0.81595349
-63.289375 80.735733 -0.82708871
-69.994102 79.720734 -0.85799646
-64.119095 81.439377 -0.85971445
-62.170231 80.695786 -0.870134
-62.683308 81.804138 -0.89393353
-64.283577 81.868996 -0.91376996
-62.981354 81.484497 -0.92518342
-69.726212 80.151398 -0.94564015
-65.703102 81.163193 -0.95348692
-71.343414 80.065666 -0.96767515
-63.094933 79.783722 -0.96775627
-63.646984 81.743942 -0.98147577
-63.272011 81.789894 -0.99739975
-63.700481 85.784149 -0.78608787
-62.084011 86.132324 -0.78710562
-64.28096 85.660782 -0.79700077
-62.780224 82.183609 -0.79702514
-64.647049 85.683342 -0.79999328
-64.593536 86.420494 -0.81448567
-68.546394 84.031647 -0.8233307
-63.666958 87.702087 -0.82349098
-69.278824 84.591003 -0.82777792
-66.317276 85.139778 -0.84498256
-63.470161 87.853539 -0.88060242
-63.357319 86.181885 -0.88250679
-63.484776 85.765411 -0.8840034
-63.014492 88.420471 -0.88624221
-62.699539 88.695518 -0.88668418
-64.22477 85.14032 -0.8882609
-65.551888 86.558273 -0.89198792
-63.496552 85.427979 -0.900608
-63.81493 83.563156 -0.90627593
-69.846756 84.171677 -0.90826243
-62.440723 82.367058 -0.92186856
-65.632568 87.419792 -0.92492068
-62.678623 89.370506 -0.93229222
-69.435822 83.715546 -0.93945229
-64.285088 84.993408 -0.94091272
-71.285095 83.36673 -0.94808769
-62.718685 85.75425 -0.95522571
-70.930145 82.998596 -0.96730375
-66.127724 82.603958 -0.97759944
-63.775829 85.402824 -0.9923532
-64.398834 83.312485 -0.99286407
-70.112915 97.664787 -0.84371907
-70.902336 100.76051 -0.84459305
-68.145599 100.77818 -0.84873939
-67.278664 99.859245 -0.84939444
-61.495724 99.996681 -0.84991831
-67.594994 97.698311 -0.85089123
-62.315796 99.904236 -0.8553648
-68.192497 101.31452 -0.85560006
-65.790367 99.875122 -0.86059636
-64.046394 94.928551 -0.86165386
-69.188217 100.14212 -0.86173046
-64.121552 99.758766 -0.86398679
-68.867912 99.147041 -0.86420983
-63.58955 101.65504 -0.8695274
-70.82872 101.24216 -0.87207377
-64.782394 101.6376 -0.8771283
-70.209251 100.79026 -0.87833369
-62.747025 95.369598 -0.88143933
-64.072586 98.252083 -0.8836807
-70.640762 101.64548 -0.88773417
-64.204987 95.092583 -0.88982964
-69.685013 101.16551 -0.89259976
-63.802734 97.751251 -0.89643222
-64.127106 97.212059 -0.90200013
-64.110855 99.299683 -0.90310633
-64.188843 98.842209 -0.90401483
-63.290459 94.761917 -0.90472996
-62.178719 94.979706 -0.90547979
-64.498116 100.67695 -0.90879148
-70.099701 101.71783 -0.91582805
-67.898903 99.143272 -0.92035037
-64.861153 100.50289 -0.92149252
-70.845787 100.26414 -0.92344433
-65.833733 100.10219 -0.92599946
-69.774681 100.79897 -0.93854207
-67.637856 97.493958 -0.95068741
-68.663895 101.77673 -0.96241081
-70.300461 101.26706 -0.97771162
-62.710979 99.968933 -0.97948927
-68.582634 93.382439 -0.98578358
-61.383457 100.47282 -0.98742181
-70.804787 106.25434 -0.95713544
-61.850887 110.67897 -0.9603368
-66.742638 111.44958 -0.96110582
-61.664295 105.69273 -0.9658168
-64.424812 108.15982 -0.96660197
-62.204193 108.00362 -0.96795845
-69.763763 109.93204 -0.96958083
-69.330971 105.25443 -0.97053272
-70.722153 107.41254 -0.97178513
-65.70414 111.20693 -0.97323203
-70.486267 108.66382 -0.97604042
-67.002808 103.94975 -0.98294586
-63.636543 108.41783 -0.98635805
-69.78215 102.23904 -0.99127978
-68.953163 109.08988 -0.99164367
-64.698936 103.50692 -0.99289024
-70.699356 102.52484 -0.99353522
-64.074089 104.57547 -0.99629384
-68.473541 111.59328 -0.99639702
-69.008133 110.96954 -0.99695295
-64.955429 109.67433 -0.9976995
-61.529636 107.13659 -0.99926895
-68.761757 117.22789 -0.98028338
-69.466537 121.79849 -0.98347729
-62.858665 114.83559 -0.98533261
-66.832947 115.11353 -0.98636723
-62.310711 117.42426 -0.98881525
-64.141716 112.29634 -0.99051046
-61.932869 113.84386 -0.9941833
-67.805191 112.43346 -0.99622709
-68.504761 117.91631 -0.99871373
-68.549667 113.58308 -0.99879259
-62.758415 123.74595 -0.99479342
-54.760021 37.351677 -0.5806101
-53.15765 36.034008 -0.58862543
-54.178291 36.958645 -0.60198015
-55.181591 38.800598 -0.70039845
-53.920692 35.845703 -0.91392606
-55.777817 38.749691 -0.94372183
-55.935452 48.39101 -0.60013199
-60.169441 48.29921 -0.60154438
-61.313957 47.061546 -0.60569191
-56.825069 51.380184 -0.60678482
-51.586506 45.651875 -0.60727847
-60.642479 48.580406 -0.60967255
-58.824963 50.202885 -0.61052877
-58.70578 48.751526 -0.61140525
-60.21405 50.258663 -0.61470473
-57.036358 51.350212 -0.6157738
-58.765472 50.845165 -0.61595207
-57.934113 51.084743 -0.62451208
-57.830734 50.161484 -0.62510836
-56.553261 48.702003 -0.62822652
-55.265789 48.848156 -0.6297664
-61.011642 50.458206 -0.63107157
-57.731918 49.210281 -0.63249475
-59.84177 48.674347 -0.63400972
-58.196709 49.894524 -0.64176178
-59.64901 50.528698 -0.64517218
-55.916924 50.079403 -0.64797747
-59.975086 48.314205 -0.65250659
-60.86591 50.748001 -0.67303175
-60.330952 48.734932 -0.67598736
-57.688385 51.939247 -0.67677641
-55.363369 50.682911 -0.69446033
-60.271523 51.377369 -0.70207524
-58.172535 49.271465 -0.70933199
-60.60849 47.011639 -0.71929693
-60.041065 51.525589 -0.72366869
-57.314419 49.230854 -0.74083
-58.685673 49.336811 -0.75000572
-59.241123 48.731026 -0.76956928
-60.039719 47.607925 -0.77493763
-59.222549 50.88813 -0.78579307
-60.721668 47.548172 -0.82201576
-61.318268 48.403484 -0.82716388
-61.192837 47.558617 -0.8337754
-59.255032 49.458611 -0.84710371
-58.103992 50.424957 -0.89931792
-57.203022 55.810097 -0.71598887
-53.859554 58.268894 -0.71600085
-59.952293 52.676788 -0.71637321
-61.232441 56.677711 -0.71752137
-57.105007 55.203468 -0.7259298
-58.678413 57.808186 -0.72729981
-59.787457 59.972958 -0.72884363
-58.773018 56.088058 -0.73081636
-57.273605 59.979946 -0.73122901
-60.261173 53.8685 -0.73396063
-57.778446 54.684704 -0.73473424
-58.9184 61.529408 -0.73751837
-60.633717 54.321812 -0.73765475
-54.573162 57.706455 -0.73779076
-58.184872 59.065556 -0.73919123
-54.236408 56.845463 -0.73966223
-60.326862 55.117069 -0.74068207
-56.553486 55.743126 -0.74070919
-57.861725 57.282375 -0.74357182
-59.789921 55.638996 -0.74520749
-52.851608 59.35141 -0.74779171
-56.505856 58.927227 -0.75114006
-56.519566 55.491699 -0.75327355
-60.324162 54.134293 -0.75339866
-53.512451 54.550068 -0.76009965
-54.867123 60.372807 -0.76015139
-60.456657 53.340836 -0.76416558
-56.43589 59.212822 -0.76705557
-51.612499 56.56279 -0.77317768
-53.365936 58.151901 -0.77464455
-57.721416 58.31773 -0.77577257
-58.268391 58.222759 -0.77714998
-56.66053 59.558659 -0.786192
-56.20277 57.197834 -0.78873527
-51.832733 61.194996 -0.78923386
-60.549503 55.993492 -0.79299301
-53.13155 58.687851 -0.79400569
-57.055214 56.022903 -0.79585528
-54.801529 59.273571 -0.79720229
-58.487595 61.272038 -0.79933584
-60.346825 56.19178 -0.7997117
-55.193588 57.176128 -0.80032825
-53.651199 60.750786 -0.80339599
-57.205193 59.340801 -0.80748057
-57.158844 60.361248 -0.80794644
-53.684063 60.033234 -0.825863
-56.680725 53.818214 -0.82855636
-53.581486 54.329323 -0.82865512
-55.713604 61.286068 -0.83445042
-60.934521 57.520607 -0.83488238
-55.432434 58.263321 -0.8421073
-60.605808 54.517769 -0.84986383
-53.932587 61.253208 -0.85305041
-60.666866 56.143772 -0.86277705
-54.809326 60.62933 -0.90087318
-60.848789 56.829926 -0.90918773
-53.097126 59.25095 -0.92867279
-59.435509 58.101894 -0.97819412
-61.082535 64.733681 -0.69576955
-57.915787 65.368179 -0.6970216
-55.705471 62.138294 -0.69820076
-55.99448 64.842545 -0.705652
-56.434433 65.16391 -0.70598584
-60.963707 62.62101 -0.7072891
-54.372459 62.108803 -0.70742542
-60.341362 63.838135 -0.72692508
-55.79068 66.415947 -0.73190612
-59.07719 62.115032 -0.73209822
-53.1521 64.623665 -0.73719507
-52.374454 62.188488 -0.73802859
-58.904671 62.344227 -0.73928207
-54.861187 62.401146 -0.74018681
-55.68174 62.908203 -0.74556935
-59.515091 64.370155 -0.74575156
-53.582813 62.787163 -0.74940223
-52.992855 64.710243 -0.77068406
-53.449921 62.813354 -0.77186728
-52.935215 64.253136 -0.77537584
-58.333149 64.022911 -0.79422855
-54.157368 65.132286 -0.79782295
-55.150764 66.211823 -0.79862309
-54.924362 64.08963 -0.81180346
-57.320702 62.310669 -0.81539786
-55.199234 64.195518 -0.81665802
-52.306591 69.870422 -0.82441533
-56.80537 63.776001 -0.82952392
-55.838951 66.742683 -0.84052616
-55.049271 67.887154 -0.84239787
-57.133862 63.825165 -0.85324544
-58.210262 65.257866 -0.85585928
-58.848724 62.897156 -0.87377548
-55.287758 63.303337 -0.89102972
-52.095772 63.772881 -0.89291579
-54.624443 65.277649 -0.91435432
-60.219345 63.366714 -0.9186523
-52.400139 63.163887 -0.95025855
-60.518879 64.285011 -0.95098019
-55.678303 67.843071 -0.96387517
-57.03989 68.417809 -0.99996823
-54.273926 80.474701 -0.69931877
-53.329811 80.782249 -0.69944233
-61.168053 76.381508 -0.70214427
-55.210838 79.658592 -0.70234936
-52.783218 79.026283 -0.70351732
-60.398056 73.865189 -0.70506483
-55.212006 81.599991 -0.70527881
-61.27824 74.238174 -0.70827359
-54.199192 81.337967 -0.71008104
-53.475052 80.486076 -0.71091902
-52.875969 75.139267 -0.71684599
-54.835972 80.746773 -0.7247054
-52.24892 81.05175 -0.72925836
-56.209106 81.66272 -0.73158288
-60.731358 78.394051 -0.73197222
-57.153759 81.454178 -0.73467362
-54.697952 81.60199 -0.73714173
-52.475037 77.452271 -0.75062603
-57.426022 81.574783 -0.75609016
-53.065964 75.41877 -0.75630623
-54.86414 81.236755 -0.77951652
-60.888027 72.887375 -0.80521792
-56.771793 81.802933 -0.80597454
-56.361713 81.133659 -0.81004858
-53.584129 80.422897 -0.82275015
-55.139133 80.852852 -0.8433345
-60.881329 76.646942 -0.89079034
-53.115601 76.25309 -0.944686
-56.170818 82.246666 -0.89840621
-54.851471 82.745422 -0.89884436
-55.752537 86.482613 -0.90218753
-53.275345 83.82901 -0.90643489
-55.574554 82.905128 -0.9081732
-56.651455 86.211403 -0.91153866
-56.894775 86.661606 -0.91346538
-56.753036 83.648514 -0.91548824
-52.752426 87.281448 -0.92680514
-53.715267 82.870239 -0.92682177
-56.487328 84.987259 -0.92961127
-57.761757 86.422913 -0.93324435
-54.898239 86.883698 -0.93471211
-56.22506 85.077301 -0.94568121
-56.283207 84.301407 -0.94927198
-54.757629 86.465614 -0.96195692
-55.996651 82.330429 -0.96309686
-56.749069 84.526871 -0.97056192
-52.477543 87.930336 -0.98143011
-56.633076 84.332878 -0.98768306
-53.877285 83.042992 -0.99091601
-55.881413 101.38313 -0.75506508
-51.650246 101.23055 -0.75536996
-56.752068 101.24496 -0.75882524
-59.161461 96.845078 -0.75980079
-58.339375 95.760399 -0.76060945
-59.745197 100.6692 -0.7606523
-57.69416 100.77372 -0.76076585
-54.704662 99.245178 -0.76118338
-55.24984 100.68505 -0.7626828
-54.499443 93.513985 -0.76534522
-58.721504 101.29103 -0.76540726
-55.822083 101.65897 -0.7658664
-56.239353 101.18333 -0.76708734
-58.7229 95.752609 -0.76870733
-59.123833 100.74027 -0.77094978
-60.660919 99.858223 -0.77170038
-55.186203 101.79243 -0.7729013
-59.283524 101.18787 -0.77370101
-60.687943 95.676071 -0.77420962
-52.352142 99.134636 -0.77461863
-54.639362 100.73201 -0.7789312
-54.199684 98.244598 -0.77943701
-55.84359 99.799675 -0.77981555
-59.825905 95.826859 -0.78027707
-55.274673 100.36521 -0.78189045
-57.784805 98.84964 -0.78224808
-54.469543 97.179741 -0.78452677
-57.197186 101.26054 -0.78883862
-56.714127 101.7494 -0.79062438
-57.727451 101.24037 -0.79083663
-54.305199 97.739792 -0.79343128
-57.589405 95.891487 -0.79472357
-57.828152 101.71781 -0.79864573
-60.167732 100.75756 -0.80205184
-54.740448 99.827637 -0.80399102
-60.273331 100.30147 -0.80530357
-61.16658 97.820808 -0.80540478
-58.097347 93.90329 -0.81130099
-55.21822 98.600433 -0.81357586
-54.140163 100.22929 -0.82547766
-59.13662 95.862495 -0.82904392
-54.30481 94.409027 -0.8343659
-60.447483 96.659073 -0.8421163
-58.550377 94.040268 -0.84551048
-55.154343 101.26152 -0.85337102
-59.319489 98.911888 -0.86637479
-60.263004 97.738716 -0.867203
-61.361958 98.834572 -0.87004024
-53.67453 100.26051 -0.87782556
-60.786213 97.37912 -0.88368052
-60.674438 99.106415 -0.88799399
-60.275146 101.69405 -0.89269733
-61.032715 101.62363 -0.90699154
-59.284779 109.72563 -0.91821557
-57.369751 109.26904 -0.91843235
-55.129459 111.24839 -0.92006326
-55.891186 108.31194 -0.92120987
-51.77829 110.28574 -0.92171705
-51.806091 109.71132 -0.92366678
-58.314964 109.7412 -0.9237833
-56.242523 109.6612 -0.92986518
-54.83741 108.88292 -0.93225312
-55.921108 106.92031 -0.93285519
-58.807739 110.21055 -0.93421841
-51.699837 111.21959 -0.93659163
-58.335503 110.30778 -0.93661094
-54.886078 111.46775 -0.9373641
-59.765663 109.36743 -0.93877757
-60.529297 110.02231 -0.93905485
-55.364338 108.29441 -0.94221115
-57.463848 109.60148 -0.94511342
-56.924244 110.24983 -0.94553173
-60.328297 111.71275 -0.94857419
-55.848553 108.6256 -0.9491201
-56.860691 108.75655 -0.95129126
-57.197285 110.72662 -0.95171714
-55.267277 111.52881 -0.95326471
-61.311718 110.85718 -0.96102715
-59.810963 111.64118 -0.96273172
-60.223896 111.07305 -0.96382737
-55.966644 107.44598 -0.9725216
-52.615509 106.69151 -0.9752351
-60.852665 110.62054 -0.97562855
-56.644356 110.59328 -0.97604716
-58.933708 111.54053 -0.98152792
-56.385056 110.57082 -0.98201758
-57.897995 110.64185 -0.98332292
-53.684193 106.23773 -0.98975414
-56.760075 111.70838 -0.99243611
-58.22504 111.6536 -0.99710912
-55.734783 111.93062 -0.99794602
-52.039108 118.60529 -0.99119276
-56.301231 114.76479 -0.99302638
-58.471497 113.04649 -0.99384785
-56.738701 115.18704 -0.99567646
-55.058464 121.7324 -0.99568307
-53.370399 116.99664 -0.99631935
-53.581467 117.91431 -0.9963547
-52.969799 113.12538 -0.99774945
-53.064259 123.21014 -0.99130595
-47.278011 38.908974 -0.68239367
-49.688038 39.361973 -0.69424075
-49.531769 36.170795 -0.71968985
-47.264969 39.252373 -0.76648057
-48.030247 36.742363 -0.90318412
-50.935165 44.682899 -0.54336584
-49.099186 42.194904 -0.55106646
-49.715263 45.525639 -0.55546445
-41.391186 52.033886 -0.56087679
-41.588783 50.816036 -0.56111938
-48.567844 46.538128 -0.56371111
-50.769753 50.605099 -0.56382674
-51.241566 51.758202 -0.56496716
-51.085823 44.162342 -0.56920099
-51.235596 47.688251 -0.57353836
-41.723618 48.849693 -0.57534415
-49.968391 48.218369 -0.57653993
-49.738632 45.240067 -0.57705128
-49.500557 42.938358 -0.58546489
-50.163559 49.967838 -0.58663535
-42.093189 51.538567 -0.58702683
-50.173706 42.235645 -0.58710861
-49.750168 42.080925 -0.60957438
-51.249432 45.524006 -0.63539755
-41.398781 46.854843 -0.9250831
-45.203423 61.29604 -0.65262496
-43.791046 60.44088 -0.65279382
-46.741718 59.83812 -0.65550804
-42.797958 57.878086 -0.6556747
-42.124111 59.722565 -0.65584344
-42.261646 61.302124 -0.65669918
-46.777489 61.305542 -0.65980828
-51.264008 55.821911 -0.66635853
-42.348251 58.287502 -0.66739053
-41.407803 57.344372 -0.66760302
-42.906574 59.690441 -0.66946882
-41.943634 56.302567 -0.67022043
-42.111851 59.413746 -0.67083669
-50.111511 56.427547 -0.67352039
-42.431812 57.712666 -0.67400295
-41.934368 56.782238 -0.67955542
-47.358452 61.660557 -0.67957902
-45.234421 60.715775 -0.68334067
-50.302681 59.891991 -0.6850071
-42.299671 56.198639 -0.68644708
-42.181942 55.719051 -0.6868096
-42.709141 56.950878 -0.68729633
-49.305763 59.793781 -0.6884048
-49.524914 60.95401 -0.68942213
-43.052551 57.695564 -0.69651788
-42.446159 54.422462 -0.69657785
-42.129383 60.726551 -0.69763035
-43.076244 56.400478 -0.69884396
-50.995632 53.173775 -0.69886333
-46.325485 60.22702 -0.69918489
-42.908661 60.220474 -0.70159769
-42.864212 59.459709 -0.72018659
-48.055447 58.635506 -0.72584015
-47.046997 59.527168 -0.72913098
-41.878181 60.108463 -0.73572361
-42.681549 55.038616 -0.73951811
-42.719997 57.161705 -0.74255794
-42.002857 56.90374 -0.75082868
-50.741043 60.028751 -0.79194957
-43.154896 57.102615 -0.79958439
-48.864239 60.058399 -0.8466081
-50.766613 61.967834 -0.85273933
-47.998062 60.815079 -0.95792538
-44.743618 68.303276 -0.75167942
-46.237022 70.89566 -0.75207382
-46.06155 69.29187 -0.75463659
-49.649307 67.764084 -0.75517333
-51.228191 64.667648 -0.75718004
-45.251057 68.116402 -0.7684018
-43.761265 62.150146 -0.77378035
-50.713207 62.812901 -0.77704334
-44.596542 70.605774 -0.78075969
-46.139191 67.524933 -0.78121179
-45.671371 71.734947 -0.78192896
-45.408585 64.745201 -0.78299057
-41.405651 71.624565 -0.78641677
-49.403126 69.798988 -0.78680259
-45.96336 70.106781 -0.793051
-43.787579 68.559608 -0.79469413
-46.290134 70.328682 -0.80038351
-45.739544 64.381241 -0.80266541
-50.609859 69.603821 -0.80506146
-46.813366 62.369671 -0.81256962
-49.404015 63.363205 -0.82291293
-42.961918 65.304367 -0.82356149
-46.064938 67.40062 -0.82632077
-46.214684 65.444603 -0.82895458
-45.770824 67.425278 -0.83065599
-47.068211 67.664368 -0.84101844
-43.599594 64.1707 -0.84415805
-45.877678 63.000641 -0.84574896
-46.76226 67.706818 -0.85129434
-49.233238 65.418442 -0.85214043
-50.177525 65.182373 -0.85352147
-49.887737 69.346535 -0.86018974
-45.878357 65.375519 -0.86816216
-42.05035 69.860924 -0.87475741
-42.851002 71.970276 -0.88136786
-51.272919 63.649742 -0.88552999
-49.38324 70.181221 -0.88983744
-50.122993 62.34346 -0.90169114
-50.130486 69.117157 -0.92276812
-41.504391 72.025482 -0.93275946
-50.064899 68.929543 -0.93986398
-43.217083 70.286118 -0.94830012
-50.463852 66.11087 -0.95136797
-48.774323 68.805031 -0.97555149
-47.242142 68.794785 -0.97655988
-43.725983 70.105034 -0.98130995
-44.814453 70.041405 -0.99588317
-48.825207 81.709457 -0.92409563
-46.819721 79.109657 -0.93984824
-43.615967 74.651878 -0.94107932
-41.969318 77.489716 -0.95153904
-46.585251 81.806694 -0.95279348
-45.496517 74.739647 -0.96965367
-50.984268 76.464844 -0.96977341
-50.880199 77.612595 -0.98296219
-47.709671 81.951027 -0.98459637
-42.979912 75.722809 -0.99235892
-50.006042 83.212715 -0.95197928
-49.320435 88.231018 -0.95498538
-46.952168 84.271996 -0.9576087
-41.425682 88.258919 -0.9585799
-42.796375 87.585739 -0.95942706
-48.811554 86.623718 -0.96181941
-46.938259 82.595833 -0.96590602
-41.909443 87.268417 -0.97727031
-47.846943 85.196396 -0.98023754
-48.132603 85.210342 -0.98112011
-48.082188 87.419823 -0.982728
-49.049107 84.566475 -0.98317337
-47.597328 83.01664 -0.98742157
-47.3955 91.470886 -0.9903149
-44.230419 100.46513 -0.81890678
-49.237186 98.748566 -0.82459104
-48.260262 96.247276 -0.82506192
-46.884167 100.51434 -0.8277027
-47.759502 100.39409 -0.83048147
-44.217369 99.817932 -0.83355784
-49.769932 100.2764 -0.83692437
-49.246796 95.847206 -0.839935
-47.00592 95.129822 -0.84983903
-50.218845 101.16956 -0.85093176
-44.176476 101.73891 -0.85229957
-46.352341 101.25552 -0.85722113
-46.827454 96.582214 -0.86066514
-42.791462 99.290688 -0.86135685
-45.047359 101.54103 -0.862849
-48.599411 99.533058 -0.8659628
-48.873154 100.083 -0.86906099
-46.603233 101.40327 -0.87021536
-46.04306 101.94849 -0.87143898
-49.328609 97.672401 -0.88199365
-47.807224 92.334953 -0.88502723
-46.641727 100.07015 -0.88953173
-44.560562 99.513008 -0.89516056
-47.786552 100.72215 -0.89577448
-47.875759 99.012817 -0.89673412
-43.787487 100.65598 -0.89899576
-46.953434 96.419891 -0.9061076
-46.544163 99.966309 -0.91571856
-48.846325 97.588516 -0.92517006
-48.706108 101.43349 -0.92536211
-48.369617 101.3344 -0.93573916
-47.282047 99.009132 -0.97215718
-47.888103 97.123909 -0.98163748
-49.329929 105.33015 -0.92891955
-42.882568 111.81603 -0.92934245
-42.872505 109.73228 -0.92968225
-43.806438 109.9171 -0.93032086
-50.719765 105.34691 -0.9318608
-50.754608 109.44055 -0.93541074
-50.855251 110.16786 -0.93564487
-46.70216 110.52288 -0.93588716
-42.212887 108.75414 -0.93727118
-42.739487 110.08351 -0.93831503
-41.683582 110.85744 -0.94479114
-45.692078 105.56647 -0.94484305
-49.900433 109.20992 -0.94546998
-41.775513 111.27164 -0.94554329
-44.289799 111.6003 -0.94573307
-49.282845 107.10083 -0.94594449
-48.065811 105.35179 -0.94658351
-48.958611 108.37488 -0.94658816
-47.711201 104.06534 -0.94701469
-50.730698 105.76224 -0.94773674
-50.720501 109.98715 -0.94820976
-48.439693 108.06744 -0.9507606
-45.847355 111.84189 -0.9522419
-49.016663 106.82381 -0.95678091
-48.550034 107.24978 -0.96872312
-49.801483 106.20852 -0.96979541
-45.333324 111.94996 -0.98664391
-42.169975 110.80824 -0.98831534
-46.201939 110.83656 -0.99175978
-48.680557 106.22845 -0.9934569
-45.434696 112.05556 -0.99401408
-46.370125 110.43829 -0.99768734
-50.963924 110.84603 -0.99893248
-45.397961 112.94212 -0.98185337
-41.461094 115.48883 -0.98549873
-42.644276 112.21897 -0.98884726
-43.043282 116.00922 -0.98933667
-45.990379 115.12099 -0.99908209
-42.276314 117.42491 -0.99918514
-46.833736 123.00667 -0.94320601
-38.337158 40.074062 -0.91225058
-37.976131 37.463654 -0.93575269
-34.865559 50.757412 -0.61143714
-40.11578 45.107998 -0.61198932
-34.376606 42.142242 -0.61234272
-39.286583 49.901947 -0.6127131
-40.331055 51.90855 -0.61396027
-35.404202 49.819473 -0.61400485
-37.014172 51.011471 -0.61957186
-34.010284 48.076149 -0.62135547
-38.791855 45.697243 -0.62190545
-36.680637 49.809052 -0.6242103
-36.258411 50.198311 -0.63076532
-35.453659 47.798439 -0.63101816
-41.031441 49.942635 -0.63293266
-38.295902 50.913227 -0.63455892
-33.844456 45.186172 -0.63603014
-33.975216 44.612793 -0.63717687
-38.951843 50.194977 -0.63832086
-39.351429 48.938904 -0.64180607
-39.33493 51.144848 -0.64445591
-36.77586 50.367519 -0.64559966
-32.206551 43.126465 -0.64636087
-36.211586 51.202766 -0.64905018
-41.125195 50.196247 -0.64944649
-34.370094 49.238308 -0.64972353
-39.519356 44.580791 -0.6501472
-38.743053 51.791786 -0.66000926
-34.20253 44.403938 -0.66619575
-34.595966 51.702564 -0.67021227
-34.221146 43.891731 -0.67055458
-39.586262 43.322571 -0.67265761
-35.237198 51.205128 -0.67827398
-35.21492 50.187191 -0.6980899
-36.308662 50.72823 -0.71305263
-36.780502 47.281494 -0.74185717
-33.95311 45.903973 -0.75321066
-35.167511 46.823212 -0.76439059
-38.587914 46.456333 -0.76924747
-34.669701 48.487904 -0.77227837
-40.773224 50.233967 -0.77646703
-36.042488 48.074371 -0.77833593
-39.717461 49.560913 -0.784419
-41.194176 50.572739 -0.78525966
-38.764126 51.258926 -0.87765008
-33.299557 51.816212 -0.93500257
-32.772923 47.382271 -0.96660256
-38.718979 56.732712 -0.8598839
-40.274719 60.023632 -0.86264658
-40.034435 61.368202 -0.86385804
-39.835548 59.941231 -0.86431742
-36.112663 58.72514 -0.86505783
-37.384686 61.512478 -0.86721897
-34.973854 59.359802 -0.86789584
-39.228008 61.181595 -0.86824179
-35.918724 59.276203 -0.86841619
-40.748875 60.305832 -0.87061906
-36.675373 56.881832 -0.87227303
-38.514084 57.087185 -0.8729347
-40.358452 57.12529 -0.88529098
-36.13393 57.18428 -0.88745046
-37.08152 59.742973 -0.89145803
-38.469269 56.508236 -0.89256853
-37.753883 57.276421 -0.89317369
-38.38512 57.828999 -0.89816451
-39.839039 58.744183 -0.90265346
-40.166584 57.644421 -0.90302879
-37.352863 57.680313 -0.9035275
-40.359478 58.034492 -0.90632129
-38.764114 59.567551 -0.91088641
-37.351105 57.208885 -0.9112829
-38.562042 60.553455 -0.92315465
-35.067276 56.145451 -0.92756468
-37.176411 56.041542 -0.92899883
-38.299961 60.847996 -0.93327457
-39.248341 57.935249 -0.93722737
-36.795876 57.318901 -0.94162714
-36.243683 58.268745 -0.9488281
-36.181934 59.016827 -0.95449948
-40.421535 56.960037 -0.9746753
-39.502956 58.120579 -0.97752619
-37.65554 59.493492 -0.98064625
-37.185314 58.037289 -0.98775804
-37.284527 56.89537 -0.9930253
-36.289528 69.796539 -0.70630211
-36.645107 70.723595 -0.710154
-40.16201 65.64695 -0.71054304
-34.47818 65.050133 -0.71318835
-33.738998 71.715385 -0.71400058
-34.691486 63.810501 -0.71428752
-41.236404 69.794037 -0.7172631
-36.574162 62.387329 -0.71912843
-40.035763 69.214211 -0.72303438
-34.099384 62.132236 -0.72343391
-41.296021 67.88681 -0.72698045
-36.694935 70.372337 -0.72993839
-38.090229 68.904266 -0.73604667
-33.720692 70.475365 -0.74588263
-37.318283 70.041389 -0.74938756
-36.774216 65.534477 -0.7566421
-34.204796 71.630501 -0.75795883
-34.010574 64.141983 -0.75880265
-40.66132 71.682961 -0.75962228
-36.023579 63.615971 -0.76067656
-38.576454 71.800499 -0.76152539
-40.749744 69.767029 -0.76618481
-36.681522 63.702587 -0.76881516
-34.74168 64.694366 -0.77784503
-40.615555 70.754097 -0.77916533
-38.314251 70.566551 -0.78162336
-37.265152 64.714272 -0.79871458
-38.609905 63.760544 -0.80203313
-41.183609 68.954353 -0.80550385
-39.792278 71.661469 -0.80772215
-37.82452 71.09079 -0.81352323
-40.300354 70.321503 -0.83083737
-35.152893 71.723763 -0.83593404
-37.749195 70.345184 -0.8428396
-38.227444 71.128548 -0.86251396
-40.400509 70.833229 -0.8767733
-38.644779 70.91497 -0.89889497
-33.326622 70.404671 -0.90247643
-36.200916 62.309055 -0.91190833
-38.004303 69.366272 -0.92195195
-41.196392 70.84436 -0.94505346
-39.711666 64.431824 -0.96880019
-39.380253 71.640114 -0.97082686
-32.301826 76.139618 -0.82602346
-38.900688 80.652069 -0.83272409
-37.45163 77.833794 -0.83768296
-39.350674 80.116165 -0.83786654
-36.716881 72.78064 -0.84823602
-39.960777 72.233696 -0.8529526
-34.08419 74.298752 -0.85434473
-33.037022 72.420593 -0.85736752
-40.154537 72.229591 -0.8575694
-39.074696 73.14653 -0.85821062
-37.646339 72.869492 -0.85894674
-33.953999 76.885574 -0.86644113
-36.044392 73.57032 -0.87245709
-36.727501 73.217796 -0.87256825
-39.053921 74.703453 -0.87409878
-38.078133 72.296806 -0.88025248
-33.305367 76.322121 -0.88132799
-38.651024 81.364616 -0.89135063
-35.795322 76.443916 -0.90849012
-36.406029 74.939354 -0.90883374
-34.336891 77.044571 -0.91437507
-32.894707 74.11261 -0.92027694
-39.205654 73.503555 -0.92743659
-33.904186 75.166122 -0.93531036
-39.257351 81.802429 -0.93689209
-40.199795 72.78894 -0.93918461
-39.603256 74.455399 -0.94059151
-40.77969 72.355484 -0.94709176
-39.825821 72.896721 -0.95373577
-40.84034 87.870155 -0.92950869
-38.468315 82.608421 -0.933002
-41.329815 87.761917 -0.9333055
-40.157127 86.809006 -0.93339109
-36.599583 84.06971 -0.93828255
-35.032368 87.102791 -0.94714952
-33.281559 91.831833 -0.94806319
-36.790573 86.279076 -0.95821738
-40.88689 89.465088 -0.96044773
-39.491886 83.440208 -0.96386892
-31.468887 89.575653 -0.96633184
-34.773338 89.461815 -0.96912348
-38.857052 87.178391 -0.97593528
-32.470909 89.066956 -0.97675121
-31.758028 87.209938 -0.97845286
-37.703053 86.439392 -0.98640633
-41.038181 88.565636 -0.99065304
-31.708033 90.576927 -0.99370879
-40.683861 86.657242 -0.99949747
-32.845753 92.284462 -0.74061894
-34.36385 100.74291 -0.74140072
-35.67701 98.703033 -0.74140292
-41.155025 97.756699 -0.74161059
-40.788517 99.763664 -0.74747908
-33.743572 99.612923 -0.74752587
-35.67458 101.66036 -0.74792093
-33.332104 100.2156 -0.76385146
-33.346199 99.385277 -0.76619333
-34.237724 99.274513 -0.7689808
-34.683815 99.743706 -0.77049756
-40.226665 101.76986 -0.77084601
-35.205284 100.74906 -0.77119404
-31.908894 98.341782 -0.77124512
-33.917168 99.234322 -0.775253
-34.367786 92.65641 -0.78008449
-34.212719 99.754974 -0.7824201
-33.746155 100.4291 -0.78380239
-32.782223 99.119667 -0.78454357
-32.970585 100.25957 -0.78651714
-32.676746 98.284195 -0.78800189
-41.213589 98.737442 -0.79109162
-40.904369 92.563957 -0.79304057
-32.044525 92.757973 -0.79837227
-35.163334 101.76476 -0.79917067
-34.307262 101.34679 -0.80249619
-33.222076 99.783592 -0.8035028
-39.638943 98.775269 -0.81593323
-33.808369 98.654961 -0.81689519
-32.424698 93.974174 -0.81936657
-33.813606 101.86195 -0.82130802
-32.30407 92.302818 -0.82403916
-32.800728 100.66304 -0.8251282
-33.159126 97.70507 -0.82708573
-33.235565 100.83753 -0.83015668
-33.792789 100.63323 -0.83572608
-32.072754 101.28384 -0.84460402
-34.133091 101.6974 -0.84913695
-34.948822 101.92391 -0.85429054
-32.799278 99.769958 -0.85690528
-31.832718 92.221619 -0.86211491
-31.793108 101.33755 -0.86226147
-31.375431 92.241287 -0.87088823
-32.685669 101.95309 -0.87097067
-31.924652 92.721924 -0.87224185
-33.313129 101.25246 -0.87786466
-32.73822 101.30932 -0.88337904
-33.144325 101.76929 -0.88766158
-31.383722 100.60117 -0.90557766
-31.917734 101.54025 -0.91115612
-32.259155 100.85382 -0.91716057
-34.41164 98.811134 -0.92365485
-39.188705 108.7158 -0.85005665
-34.838486 108.22168 -0.85087216
-34.193233 104.70821 -0.8521412
-41.093033 111.08609 -0.85403055
-40.74765 106.32285 -0.85715622
-40.669239 107.82793 -0.85994667
-38.659592 111.22302 -0.86312193
-40.547577 110.95753 -0.86451328
-40.697998 111.22583 -0.86466402
-36.834339 109.25088 -0.86531574
-40.680477 109.16547 -0.8661595
-40.182579 108.79775 -0.86773252
-41.231792 104.25955 -0.86894405
-40.810707 111.72236 -0.87482917
-37.648796 108.99301 -0.87618375
-36.239697 109.84616 -0.8798303
-34.234016 110.15277 -0.88056928
-32.776485 102.7635 -0.88394594
-33.816628 106.87332 -0.8844921
-36.142654 110.72375 -0.89122277
-32.738075 103.3276 -0.89178675
-35.529781 111.48982 -0.89449114
-36.27343 107.60605 -0.90177822
-33.714584 110.32533 -0.90223956
-35.112408 107.24863 -0.90279323
-32.890858 103.74789 -0.92280817
-34.784801 108.59672 -0.92469543
-35.846054 109.76452 -0.93374443
-33.394623 109.92194 -0.93450028
-32.949284 109.13954 -0.94083637
-32.371124 108.1943 -0.94427222
-32.23896 103.2798 -0.9455688
-33.315254 107.20178 -0.94610673
-32.95377 105.01507 -0.94728112
-34.482693 108.80898 -0.95208865
-34.998878 111.18192 -0.95366138
-32.042149 107.80791 -0.9670375
-35.118458 109.24038 -0.97039747
-32.849033 109.73007 -0.97663486
-33.65094 108.46165 -0.98068738
-31.56624 119.62704 -0.97511548
-31.827316 120.63501 -0.97547555
-40.912819 114.90999 -0.97840357
-36.006866 115.14082 -0.97878569
-36.551338 114.71362 -0.97899157
-39.953499 118.63931 -0.97923309
-37.829342 116.24723 -0.979348
-33.768379 113.78197 -0.9803769
-36.163902 114.5983 -0.98047119
-41.346718 116.46318 -0.98290873
-31.551441 117.10846 -0.98447978
-32.548126 119.57953 -0.99097717
-31.824245 115.93274 -0.99429232
-31.421135 118.14399 -0.99434465
-39.021744 121.28091 -0.9979943
-41.222378 116.85226 -0.99885178
-39.678547 127.78286 -0.99455947
-34.393883 127.56834 -0.99537534
-32.484215 133.19438 -0.9561252
-23.006998 45.290535 -0.79881454
-22.798361 43.2612 -0.80447584
-23.64546 46.622272 -0.80824107
-22.615389 42.362129 -0.81534559
-24.598652 50.836452 -0.85611022
-22.119055 42.634769 -0.88255453
-24.601027 51.508739 -0.92317826
-24.376667 50.84127 -0.9357053
-22.392414 43.752415 -0.93816942
-23.055567 49.161842 -0.96292144
-24.304449 47.246597 -0.96457839
-22.612747 59.91745 -0.73636103
-21.814625 61.812569 -0.74155033
-26.918047 60.49015 -0.74290091
-22.695591 60.770023 -0.74315751
-23.236958 61.703979 -0.74317503
-22.500601 57.074566 -0.74897182
-22.478237 59.816872 -0.75017649
-23.091911 60.248764 -0.75053185
-21.677042 59.135574 -0.75150603
-21.826689 57.290909 -0.75308561
-21.724192 58.177216 -0.75616324
-22.283255 60.749668 -0.75748289
-21.619215 57.878292 -0.75780421
-22.165533 61.853878 -0.75810665
-26.387672 61.811142 -0.76020974
-23.274799 61.110764 -0.76148272
-23.165321 59.966106 -0.77583867
-22.147373 58.886147 -0.77614677
-22.558807 54.588322 -0.78055429
-27.98822 61.281162 -0.78307253
-22.411522 61.197945 -0.7928257
-22.71549 61.13102 -0.80814427
-26.865805 56.432922 -0.82484162
-28.346363 62.069016 -0.82543302
-21.913473 52.786072 -0.82891852
-21.851528 61.143311 -0.8429817
-22.231819 71.635994 -0.76505768
-22.921007 64.018288 -0.76805985
-26.395351 63.044384 -0.77161229
-21.868746 62.524799 -0.77651805
-27.786915 62.082531 -0.79002911
-24.140804 65.173607 -0.81244022
-23.734814 71.95829 -0.83101785
-27.721989 63.849373 -0.83875513
-21.663126 66.259872 -0.8394208
-28.627981 66.815971 -0.84828573
-24.85923 63.937321 -0.85605365
-21.599007 63.494354 -0.86401635
-21.406847 66.725945 -0.89426357
-26.434362 69.290688 -0.94157922
-22.060841 67.376114 -0.95942187
-27.047159 77.481934 -0.7598139
-27.651529 76.996223 -0.76158971
-27.171808 72.251465 -0.76447916
-25.579077 77.687798 -0.76475632
-30.807489 78.312744 -0.77505744
-29.709064 79.758865 -0.77903038
-25.743023 75.300949 -0.7796737
-28.832214 77.643715 -0.7799291
-30.932476 75.868073 -0.78025615
-22.574301 73.807602 -0.78182602
-31.205301 72.203064 -0.78202534
-30.328167 76.237144 -0.78224027
-26.175303 80.719261 -0.78305668
-24.143784 80.61882 -0.78306937
-29.771973 73.80275 -0.78596461
-27.983662 75.953636 -0.78716451
-29.269249 81.367462 -0.7901988
-31.311687 77.185852 -0.79029548
-27.656385 73.367004 -0.79107064
-23.611958 78.124107 -0.79447001
-24.566849 80.521523 -0.80092335
-25.737522 74.963158 -0.80362695
-28.388075 76.261917 -0.80496806
-30.869654 76.490936 -0.80625421
-22.750162 74.239464 -0.81050909
-30.262457 76.730759 -0.81823134
-26.906691 80.913261 -0.82286227
-30.421171 77.795876 -0.82287288
-22.326691 81.736153 -0.82608199
-25.481203 79.185234 -0.82742912
-26.001291 73.606079 -0.82857317
-29.106667 79.027779 -0.83073151
-29.460506 79.691727 -0.83135563
-27.995628 75.024094 -0.83656526
-28.586536 79.81411 -0.84225732
-21.586357 76.434685 -0.8499608
-30.717588 78.781654 -0.85239476
-27.062336 78.70401 -0.85482812
-28.355066 78.849808 -0.85954463
-26.206184 75.436623 -0.86275989
-28.654566 79.338692 -0.86440593
-23.060974 74.250977 -0.89907861
-24.300968 79.651443 -0.90678132
-30.651714 79.930305 -0.90801132
-24.911737 80.022392 -0.92072105
-28.096567 81.564072 -0.9519707
-21.834913 80.957367 -0.96289659
-24.398827 81.618591 -0.9717769
-24.505192 81.695671 -0.97459453
-31.312187 78.715599 -0.97723609
-30.904322 91.997978 -0.93934774
-28.802795 85.433449 -0.94597721
-28.625771 87.369942 -0.95209157
-27.560909 89.912285 -0.9536981
-28.262657 87.517296 -0.95413589
-28.68524 84.085327 -0.95446652
-22.842066 88.369431 -0.95780671
-29.177805 84.839615 -0.95888245
-26.147886 89.45388 -0.96045017
-27.990406 86.051605 -0.96096963
-22.786425 91.045532 -0.96380639
-25.593201 82.266235 -0.96517557
-25.615801 90.426086 -0.9728052
-25.160646 86.835388 -0.97794175
-26.488886 86.180145 -0.979442
-23.358759 90.174431 -0.9805966
-24.991549 92.024841 -0.98523527
-24.940876 91.274216 -0.98561597
-26.800385 86.540329 -0.98616099
-27.172232 87.526283 -0.98734504
-27.225243 87.185745 -0.98844713
-30.428833 86.228233 -0.99057072
-22.022675 84.181259 -0.99279577
-30.855383 88.860611 -0.99686342
-23.766356 99.359337 -0.79254729
-25.032932 94.496132 -0.79315484
-21.861759 99.765961 -0.79439127
-27.316502 100.1412 -0.79669499
-25.271355 101.22434 -0.7994101
-24.275135 101.29107 -0.80526781
-25.705271 93.324005 -0.81170255
-22.607882 101.76869 -0.81274998
-27.605408 101.88783 -0.81466991
-26.789299 93.353798 -0.81763238
-29.314308 101.66611 -0.82903129
-28.587774 101.35273 -0.83375138
-28.904617 93.292015 -0.84118634
-24.884481 92.860901 -0.84288967
-21.989132 97.130379 -0.85443389
-27.388432 93.650314 -0.85493565
-26.649162 93.58551 -0.85678673
-22.810204 93.743301 -0.8615756
-27.346857 100.82609 -0.86691111
-22.099665 93.911278 -0.86725301
-23.074524 96.580215 -0.91709745
-22.981815 93.15239 -0.93236041
-24.879267 93.409126 -0.93455315
-30.124252 93.776405 -0.94130009
-29.509586 93.278931 -0.94149393
-30.169487 92.999504 -0.94225174
-25.628935 93.55188 -0.9553827
-27.574156 100.11942 -0.96960598
-22.806829 92.91658 -0.98484129
-28.535683 100.07491 -0.99051714
-28.683187 108.77393 -0.91823143
-22.735966 111.76353 -0.91888636
-25.804628 109.16164 -0.92032081
-26.953848 108.44131 -0.92149967
-28.727448 109.70525 -0.92224652
-24.890284 111.74896 -0.92254186
-26.075535 111.57732 -0.92297441
-28.681366 111.33115 -0.92392039
-28.193253 108.29962 -0.92502517
-25.63678 110.27688 -0.92726535
-29.069683 104.83972 -0.92914355
-30.524284 107.81471 -0.92926562
-27.10265 111.09391 -0.93095827
-24.2348 111.28625 -0.93266839
-30.86853 109.37067 -0.93375027
-23.220154 111.25119 -0.93838143
-23.288851 108.53385 -0.94279891
-28.342855 111.68752 -0.94339013
-25.866781 111.24258 -0.94623649
-29.817556 111.79137 -0.94659805
-31.143295 108.96708 -0.94783944
-24.192621 111.52598 -0.94791836
-27.737373 109.79492 -0.94840902
-30.048138 105.63902 -0.94945985
-29.181599 105.29651 -0.95574903
-30.808939 110.88972 -0.96168363
-26.604303 111.65293 -0.96962738
-27.252197 111.67644 -0.97119677
-30.594988 105.42075 -0.97177416
-31.244989 107.17533 -0.97774971
-21.605721 110.24792 -0.9787752
-25.675446 111.88666 -0.98071671
-30.152573 109.02245 -0.98223364
-30.033237 105.44107 -0.98408961
-31.143505 106.72275 -0.98768908
-30.139988 108.99359 -0.98780322
-27.327227 110.83518 -0.99245363
-27.704121 115.61507 -0.98071384
-25.13665 116.20444 -0.98237109
-26.315332 114.29904 -0.98271757
-30.825615 112.88666 -0.98301822
-28.166542 115.02581 -0.98395842
-25.803263 116.18551 -0.98486024
-25.735268 115.86125 -0.98522997
-30.231159 116.61994 -0.98536956
-26.552757 115.92318 -0.98546189
-30.25354 117.81851 -0.98592144
-29.307865 116.61077 -0.99093747
-27.180082 117.03017 -0.99101657
-29.275503 116.16619 -0.99126023
-27.319899 112.4952 -0.99258494
-28.099779 121.56046 -0.99260473
-22.866219 119.97263 -0.9939599
-30.811487 117.85027 -0.99672163
-26.920063 114.12926 -0.99726182
-23.516172 117.95233 -0.99822891
-26.34708 115.72765 -0.99875635
-22.632921 128.12454 -0.9914422
-22.751823 127.04575 -0.99520546
-21.770033 133.21872 -0.97525108
-16.697447 48.36401 -0.76551986
-19.026287 50.714043 -0.76797903
-18.22757 45.173851 -0.76896626
-21.094669 49.58181 -0.7725724
-17.011637 44.910793 -0.77467972
-19.423481 42.81004 -0.78409606
-16.187172 49.08493 -0.79297161
-16.175962 48.175205 -0.81954622
-20.434929 51.10149 -0.83109307
-21.166695 48.769756 -0.83228493
-17.153946 48.29734 -0.87468368
-16.043102 48.647854 -0.91865307
-19.675528 46.994389 -0.94429213
-21.107859 54.677505 -0.73204947
-17.32296 54.227768 -0.73645151
-20.728636 55.707176 -0.73707217
-20.571501 61.226345 -0.73853874
-20.391275 58.688141 -0.7391203
-20.915163 59.805866 -0.74080169
-20.301743 58.298996 -0.74207306
-20.79792 58.233616 -0.74350405
-11.380692 59.718071 -0.74421781
-21.311825 56.69455 -0.74433231
-20.811789 57.796806 -0.74437201
-20.233555 59.326668 -0.74504524
-21.16437 59.794231 -0.75479865
-11.844357 61.764706 -0.75503206
-16.385685 54.009613 -0.75569588
-19.853806 61.710255 -0.75968081
-20.722939 57.188282 -0.76930344
-20.756096 60.534603 -0.77041769
-12.367864 60.821167 -0.77120715
-21.225956 57.772362 -0.77174926
-19.821651 58.727913 -0.77237236
-20.407869 61.942665 -0.77274579
-19.804546 61.266624 -0.78293508
-21.208204 61.234856 -0.80043262
-11.60929 59.985874 -0.80509454
-21.260984 61.755295 -0.81598818
-21.290508 60.141708 -0.82222021
-11.534219 59.350098 -0.84564346
-11.481197 60.056484 -0.85876226
-12.483114 64.175446 -0.83433712
-11.659584 62.136009 -0.83526933
-19.763195 66.066711 -0.84384233
-12.867566 70.439217 -0.84438026
-13.041315 62.369675 -0.85157472
-12.223603 67.05957 -0.85598123
-19.697397 68.669861 -0.85679781
-20.853212 64.368912 -0.85973155
-11.631237 65.104134 -0.85975856
-20.910622 63.801468 -0.86106527
-11.645306 64.589546 -0.87728244
-20.300417 65.817017 -0.87756169
-13.039971 70.290916 -0.88506085
-12.217881 70.675697 -0.89312309
-12.153092 63.648579 -0.89576572
-13.178824 70.801147 -0.92336547
-12.399069 69.634064 -0.93524647
-20.917597 63.370399 -0.9385699
-21.18384 67.930878 -0.94306457
-18.236423 80.447754 -0.75616765
-17.424051 81.352325 -0.75924951
-14.757451 76.796371 -0.75996453
-20.12668 74.651497 -0.76072747
-13.893736 77.717087 -0.76131493
-18.349478 81.604675 -0.76231045
-12.341985 77.311775 -0.76403826
-19.300222 76.176727 -0.76583534
-14.775296 79.252373 -0.77104568
-20.332897 79.364395 -0.77253234
-13.806794 78.292343 -0.77914065
-13.310017 76.923355 -0.7812826
-13.681 81.203545 -0.78198355
-19.556984 76.324738 -0.78677166
-16.794956 77.245682 -0.78787833
-14.185594 78.728821 -0.79064059
-17.800741 81.17009 -0.7926265
-12.048615 72.403526 -0.79544652
-21.260731 74.186043 -0.79844552
-13.259235 77.781036 -0.79867941
-13.494755 81.851257 -0.80308187
-12.564506 77.7397 -0.80819416
-12.245716 75.353752 -0.8097496
-15.983081 76.111923 -0.81095678
-14.081498 78.368286 -0.81354684
-15.525051 79.461349 -0.81710231
-13.555513 77.208572 -0.81823856
-16.438864 77.221458 -0.82338905
-16.297581 76.390465 -0.82793611
-14.859988 77.124222 -0.82848465
-15.261028 76.444138 -0.83424038
-16.852116 76.807777 -0.84508026
-18.143154 82.069504 -0.85208488
-21.130657 74.986122 -0.86574048
-12.817744 72.263252 -0.87040508
-12.223813 72.743698 -0.87171698
-12.762668 78.94088 -0.87462449
-16.060961 77.914551 -0.88094962
-17.912916 78.611885 -0.8841325
-18.074734 75.477036 -0.89843792
-20.65819 74.128784 -0.90072465
-18.512859 81.677155 -0.90568924
-12.420341 77.952637 -0.90739089
-17.694313 73.442154 -0.99582571
-17.865278 83.809708 -0.95851594
-18.999681 91.599701 -0.95917779
-20.094904 87.23806 -0.95939225
-18.534742 89.661911 -0.95980912
-17.35144 89.702156 -0.96027684
-17.390636 85.508209 -0.96150821
-12.083201 86.263618 -0.96250141
-18.012182 88.763123 -0.96375179
-15.275893 91.644989 -0.96399611
-17.707972 87.502724 -0.96403122
-17.03097 88.525566 -0.96662903
-12.67009 85.079407 -0.96772361
-21.059813 90.08786 -0.96997941
-15.596638 90.882034 -0.97003394
-13.83588 90.168304 -0.97057545
-14.973815 89.393936 -0.97163594
-20.303823 88.344742 -0.97261131
-17.722418 88.026978 -0.97496784
-16.733177 87.146561 -0.9757697
-13.917565 90.646576 -0.97726297
-18.914227 85.673935 -0.9774003
-12.268637 90.443672 -0.97803897
-19.677721 90.160965 -0.97976446
-17.796455 83.376099 -0.98019636
-13.972627 88.809555 -0.98064852
-18.374134 89.276535 -0.98141301
-18.694401 88.749405 -0.98302597
-19.417297 87.166275 -0.98439866
-16.567127 91.351913 -0.98462528
-11.696573 91.361473 -0.98942769
-16.098915 90.297684 -0.99181467
-19.289421 87.982719 -0.99419177
-20.230343 89.508705 -0.99721485
-15.169041 95.9104 -0.87317806
-17.110508 100.40164 -0.87444091
-16.651539 98.861298 -0.88012177
-16.537266 92.477676 -0.88255948
-17.145634 101.29609 -0.88367355
-18.525408 99.824867 -0.88640738
-17.306923 95.629494 -0.88740724
-16.623213 99.128937 -0.90719157
-16.787294 101.76535 -0.90759426
-13.36568 93.704124 -0.91113687
-15.211101 95.176872 -0.92237484
-12.22233 92.130402 -0.93340737
-16.397675 101.89957 -0.94087952
-15.832603 92.339851 -0.95559549
-11.573166 93.968307 -0.95898002
-16.844034 100.87847 -0.95999491
-11.524404 94.013405 -0.96342647
-16.560705 92.533043 -0.96491635
-15.526826 101.0877 -0.96659791
-17.711025 99.296196 -0.9713617
-20.359808 98.081001 -0.99462503
-17.424633 107.25317 -0.91501254
-11.398386 102.37497 -0.9159584
-15.428554 111.35286 -0.91662079
-17.805737 108.20171 -0.92008609
-19.694826 111.21375 -0.92069882
-14.862788 110.9723 -0.92087275
-18.910973 108.81992 -0.92721915
-19.387896 111.29153 -0.93774396
-14.759336 111.26825 -0.94125891
-13.28653 106.76913 -0.94275588
-18.240166 106.37806 -0.94728136
-15.899409 107.29144 -0.94864911
-13.782163 108.33209 -0.94952923
-12.567101 106.02338 -0.95056421
-18.548601 107.92705 -0.95079464
-14.539618 105.4761 -0.95152295
-11.865607 104.90703 -0.96333885
-12.534308 105.92457 -0.96557444
-13.724677 109.37137 -0.97144312
-16.741669 108.1423 -0.98071682
-16.937269 107.4084 -0.98110169
-16.723452 104.37284 -0.98319411
-15.562277 102.67663 -0.98530453
-18.235033 104.24288 -0.98562449
-18.02821 109.13526 -0.9891265
-15.869477 110.85072 -0.99022508
-11.369647 111.50323 -0.99055237
-16.901167 111.96001 -0.9911238
-19.138378 111.56561 -0.99564469
-14.58258 105.57195 -0.99620593
-11.674289 117.72084 -0.97121769
-14.616261 115.00811 -0.97128505
-18.194569 119.45698 -0.97223812
-18.274727 114.89899 -0.9723137
