# .PCD v0.7 - Point Cloud Data file format
VERSION 0.7
FIELDS x y z
SIZE 4 4 4
TYPE F F F
COUNT 1 1 1
WIDTH 69
HEIGHT 1
VIEWPOINT 0 0 0 1 0 0 0
POINTS 69
DATA ascii
-98.461967 39.575661 -1.035054
-98.461967 54.575661 -1.4386247
-98.461967 69.575661 -0.86033547
-98.461967 84.575661 -0.95459163
-98.461967 99.575661 -1.1265736
-98.461967 114.57566 -1.5862347
-83.461967 39.575661 -0.64719486
-83.461967 54.575661 -1.0328745
-83.461967 69.575661 -0.65458882
-83.461967 84.575661 -1.0985394
-83.461967 99.575661 -1.1048024
-83.461967 114.57566 -1.6164176
-83.461967 129.57565 -1.8455942
-68.461967 24.575661 -0.54327154
-68.461967 39.575661 -0.59909433
-68.461967 54.575661 -1.0391271
-68.461967 69.575661 -0.81332254
-68.461967 84.575661 -1.1131026
-68.461967 99.575661 -1.0753914
-68.461967 114.57566 -1.6111156
-68.461967 129.57565 -1.7293526
-68.461967 144.57565 -1.9354985
-53.461967 39.575661 -0.55197483
-53.461967 54.575661 -0.67837888
-53.461967 69.575661 -1.0040931
-53.461967 84.575661 -1.1804358
-53.461967 99.575661 -1.0538161
-53.461967 114.57566 -1.5703024
-53.461967 129.57565 -1.8227705
-53.461967 144.57565 -1.9625351
-38.461967 39.575661 -0.65669364
-38.461967 54.575661 -0.78666699
-38.461967 69.575661 -1.1680715
-38.461967 84.575661 -1.5729691
-38.461967 99.575661 -1.0040381
-38.461967 114.57566 -1.5145264
-38.461967 129.57565 -1.7691418
-38.461967 144.57565 -1.913018
-38.461967 159.57565 -1.9998068
-23.461967 39.575661 -0.81534559
-23.461967 54.575661 -0.75053185
-23.461967 69.575661 -1.0670989
-23.461967 84.575661 -1.441717
-23.461967 99.575661 -1.2697563
-23.461967 114.57566 -1.3166653
-23.461967 129.57565 -1.6887417
-23.461967 144.57565 -1.8999438
-8.4619675 24.575661 -1.0846958
-8.4619675 39.575661 -1.3826536
-8.4619675 54.575661 -1.1168928
-8.4619675 69.575661 -1.0379241
-8.4619675 84.575661 -1.1209496
-8.4619675 99.575661 -1.2615713
-8.4619675 114.57566 -1.196949
-8.4619675 129.57565 -1.6388929
-8.4619675 144.57565 -1.9378229
6.5380325 24.575661 -0.91801548
6.5380325 39.575661 -1.3626109
6.5380325 54.575661 -1.3144726
6.5380325 69.575661 -1.6715331
6.5380325 84.575661 -1.722229
6.5380325 99.575661 -1.7298888
6.5380325 114.57566 -1.1365145
6.5380325 129.57565 -1.3069004
21.538033 54.575661 -1.6053678
21.538033 69.575661 -1.7500489
21.538033 84.575661 -1.786188
21.538033 99.575661 -1.7463844
21.538033 114.57566 -1.2421588
