# .PCD v0.7 - Point Cloud Data file format
VERSION 0.7
FIELDS x y z
SIZE 4 4 4
TYPE F F F
COUNT 1 1 1
WIDTH 109
HEIGHT 1
VIEWPOINT 0 0 0 1 0 0 0
POINTS 109
DATA ascii
-107.86552 -24.848465 -1.940436
-107.86552 -9.848465 -1.9739308
-107.86552 5.151535 -1.8789948
-107.86552 65.151535 -0.31420133
-92.865517 -54.848465 -0.27549949
-92.865517 -39.848465 -1.8779012
-92.865517 -24.848465 -1.4988689
-92.865517 -9.848465 -1.9564329
-92.865517 5.151535 -1.9897227
-92.865517 20.151535 -1.9759912
-92.865517 35.151535 -1.9584982
-92.865517 50.151535 -1.9975218
-92.865517 65.151535 -1.9100987
-92.865517 80.151535 1.3472916
-77.865517 -69.848465 -0.72176754
-77.865517 -54.848465 -1.6315637
-77.865517 -39.848465 -1.7648702
-77.865517 -24.848465 -1.7075695
-77.865517 -9.848465 -1.864737
-77.865517 5.151535 -1.8788912
-77.865517 20.151535 -1.9411522
-77.865517 35.151535 -1.9735314
-77.865517 50.151535 -1.9851732
-77.865517 65.151535 -1.8788131
-77.865517 80.151535 -0.47191975
-62.865517 -69.848465 -1.6794202
-62.865517 -54.848465 -1.6183329
-62.865517 -39.848465 -1.5906036
-62.865517 -24.848465 -1.4964527
-62.865517 -9.848465 -1.6500823
-62.865517 5.151535 -1.7741318
-62.865517 20.151535 -1.9241763
-62.865517 35.151535 -1.9222848
-62.865517 50.151535 -1.8597118
-62.865517 65.151535 -1.6901454
-62.865517 80.151535 -1.1369972
-47.865517 -69.848465 -1.28194
-47.865517 -54.848465 -1.4298122
-47.865517 -39.848465 -1.4535822
-47.865517 -24.848465 -1.2520692
-47.865517 -9.848465 -1.2902044
-47.865517 5.151535 -1.5552692
-47.865517 20.151535 -1.7926408
-47.865517 35.151535 -1.8127301
-47.865517 50.151535 -1.6753994
-47.865517 65.151535 -1.6742644
-47.865517 80.151535 -1.272995
-47.865517 95.151535 3.3567026
-32.865517 -84.848465 -1.8030026
-32.865517 -69.848465 -1.5797973
-32.865517 -54.848465 -1.2812198
-32.865517 -39.848465 -1.1085386
-32.865517 -24.848465 -1.0154817
-32.865517 -9.848465 -0.98586273
-32.865517 5.151535 -1.1305943
-32.865517 20.151535 -1.6599495
-32.865517 35.151535 -1.7295129
-32.865517 50.151535 -1.6124179
-32.865517 65.151535 -1.6625496
-32.865517 80.151535 -1.383603
-32.865517 95.151535 0.64137477
-17.865517 -84.848465 -1.1670755
-17.865517 -69.848465 -1.4518958
-17.865517 -54.848465 -1.2446959
-17.865517 -39.848465 -1.1890824
-17.865517 -24.848465 -1.1910036
-17.865517 -9.848465 -1.2852048
-17.865517 5.151535 -1.5119169
-17.865517 20.151535 -1.5802982
-17.865517 35.151535 -1.5863999
-17.865517 50.151535 -1.6606091
-17.865517 65.151535 -1.7466602
-17.865517 80.151535 -1.6171675
-17.865517 95.151535 0.092402525
-2.8655167 -84.848465 -1.6061122
-2.8655167 -69.848465 -1.7384465
-2.8655167 -54.848465 -1.6890483
-2.8655167 -39.848465 -1.6481949
-2.8655167 -24.848465 -1.35297
-2.8655167 -9.848465 -1.2916656
-2.8655167 5.151535 -1.6008607
-2.8655167 20.151535 -1.5989366
-2.8655167 35.151535 -1.4246924
-2.8655167 50.151535 -1.7003603
-2.8655167 65.151535 -1.9320464
-2.8655167 80.151535 -1.6704092
12.134483 -84.848465 -1.2671398
12.134483 -69.848465 -1.7193177
12.134483 -54.848465 -1.7300419
12.134483 -39.848465 -1.7022729
12.134483 -24.848465 -1.3228759
12.134483 -9.848465 -0.6744656
12.134483 5.151535 -1.843345
27.134483 -69.848465 0.18659531
27.134483 -24.848465 -1.2395222
27.134483 -9.848465 -1.0198596
27.134483 5.151535 -1.1705246
42.134483 -39.848465 -1.9985186
42.134483 -24.848465 -1.8485191
42.134483 -9.848465 -1.4797615
42.134483 5.151535 -1.5628705
57.134483 -24.848465 -1.7400018
57.134483 -9.848465 -1.6243767
57.134483 5.151535 -1.5610175
72.134483 -24.848465 -1.6257879
72.134483 -9.848465 -1.8295145
72.134483 5.151535 -1.5221615
87.134483 -9.848465 -1.7193522
87.134483 5.151535 -1.4443166
