# .PCD v0.7 - Point Cloud Data file format
VERSION 0.7
FIELDS x y z
SIZE 4 4 4
TYPE F F F
COUNT 1 1 1
WIDTH 80
HEIGHT 1
VIEWPOINT 0 0 0 1 0 0 0
POINTS 80
DATA ascii
-21.159096 -40.973778 -1.5899243
-21.159096 -25.973778 -1.5899243
-21.159096 -10.973778 -1.3083906
-21.159096 4.0262222 -1.3353685
-21.159096 19.026222 -1.2697108
-6.1590958 -40.973778 -1.8741472
-6.1590958 -25.973778 -1.5899243
-6.1590958 -10.973778 -1.2814128
-6.1590958 4.0262222 -1.1086447
-6.1590958 19.026222 -1.2040532
8.8409042 -40.973778 -1.8741472
8.8409042 -25.973778 -1.898436
8.8409042 -10.973778 -1.5256462
8.8409042 4.0262222 -0.72877181
8.8409042 19.026222 -0.75524235
23.840904 -40.973778 -1.8498585
23.840904 -25.973778 -1.8909903
23.840904 -10.973778 -1.6658355
23.840904 4.0262222 -0.66845286
23.840904 19.026222 -0.35360405
38.840904 -40.973778 -1.8153869
38.840904 -25.973778 -1.8218534
38.840904 -10.973778 -1.8438896
38.840904 4.0262222 -1.1796062
38.840904 19.026222 -0.93180174
53.840904 -40.973778 -1.779469
53.840904 -25.973778 -1.7231952
53.840904 -10.973778 -1.775198
53.840904 4.0262222 -1.6327739
53.840904 19.026222 -1.4183304
68.840904 -40.973778 -1.6810489
68.840904 -25.973778 -1.582557
68.840904 -10.973778 -1.7196158
68.840904 4.0262222 -1.4490483
68.840904 19.026222 0.74016392
83.840904 -40.973778 -1.5373436
83.840904 -25.973778 -1.7254117
83.840904 -10.973778 -1.8027074
83.840904 4.0262222 -1.7092626
83.840904 19.026222 1.6617987
98.840904 -40.973778 -1.3578539
98.840904 -25.973778 -1.5381248
98.840904 -10.973778 -1.3830051
98.840904 4.0262222 -1.0104049
98.840904 19.026222 1.2494383
113.8409 -40.973778 -0.60979551
113.8409 -25.973778 -0.65750927
113.8409 -10.973778 -0.59277654
113.8409 4.0262222 -0.17051691
113.8409 19.026222 1.7771124
128.84091 -40.973778 0.46677575
128.84091 -25.973778 0.30236086
128.84091 -10.973778 0.25999522
128.84091 4.0262222 0.92255539
128.84091 19.026222 2.3870461
143.84091 -40.973778 2.2209051
143.84091 -25.973778 1.3600527
143.84091 -10.973778 1.2143222
143.84091 4.0262222 2.5501058
143.84091 19.026222 3.6905246
158.84091 -40.973778 3.4889865
158.84091 -25.973778 2.1282144
158.84091 -10.973778 1.9620726
158.84091 4.0262222 2.8979058
158.84091 19.026222 3.4431529
173.84091 -40.973778 4.250916
173.84091 -25.973778 3.2726386
173.84091 -10.973778 2.9190865
173.84091 4.0262222 3.4824789
173.84091 19.026222 3.3979123
188.84091 -40.973778 4.295125
188.84091 -25.973778 4.3393335
188.84091 -10.973778 4.1204023
188.84091 4.0262222 4.0612106
188.84091 19.026222 3.6121173
203.84091 -40.973778 4.3872156
203.84091 -25.973778 4.3872156
203.84091 -10.973778 4.4350977
203.84091 4.0262222 4.7897096
203.84091 19.026222 4.2009134
