# .PCD v0.7 - Point Cloud Data file format
VERSION 0.7
FIELDS x y z
SIZE 4 4 4
TYPE F F F
COUNT 1 1 1
WIDTH 80
HEIGHT 1
VIEWPOINT 0 0 0 1 0 0 0
POINTS 80
DATA ascii
-21.159096 -40.973778 -1.5899243
-21.159096 -25.973778 -1.5899243
-21.159096 -10.973778 -1.3353685
-21.159096 4.0262222 -1.2220066
-21.159096 19.026222 -1.2697108
-6.1590958 -40.973778 -1.8741472
-6.1590958 -25.973778 -1.898436
-6.1590958 -10.973778 -0.72877181
-6.1590958 4.0262222 -0.75524235
-6.1590958 19.026222 -0.97964776
8.8409042 -40.973778 -1.8498585
8.8409042 -25.973778 -1.8909903
8.8409042 -10.973778 -0.66845286
8.8409042 4.0262222 -0.35360405
8.8409042 19.026222 -0.55442321
23.840904 -40.973778 -1.8153869
23.840904 -25.973778 -1.8218534
23.840904 -10.973778 -1.1796062
23.840904 4.0262222 -0.93180174
23.840904 19.026222 -0.64270288
38.840904 -40.973778 -1.779469
38.840904 -25.973778 -1.7231952
38.840904 -10.973778 -1.6327739
38.840904 4.0262222 -1.4183304
38.840904 19.026222 -1.1750661
53.840904 -40.973778 -1.6810489
53.840904 -25.973778 -1.582557
53.840904 -10.973778 -1.4490483
53.840904 4.0262222 0.74016392
53.840904 19.026222 -0.33908325
68.840904 -40.973778 -1.5373436
68.840904 -25.973778 -1.7254117
68.840904 -10.973778 -1.7092626
68.840904 4.0262222 1.6617987
68.840904 19.026222 1.2009814
83.840904 -40.973778 -1.3578539
83.840904 -25.973778 -1.5381248
83.840904 -10.973778 -1.0104049
83.840904 4.0262222 1.2494383
83.840904 19.026222 1.4556185
98.840904 -40.973778 -0.60979551
98.840904 -25.973778 -0.65750927
98.840904 -10.973778 -0.17051691
98.840904 4.0262222 1.7771124
98.840904 19.026222 1.5132754
113.8409 -40.973778 0.46677575
113.8409 -25.973778 0.30236086
113.8409 -10.973778 0.92255539
113.8409 4.0262222 2.3870461
113.8409 19.026222 1.5132754
128.84091 -40.973778 2.2209051
128.84091 -25.973778 1.3600527
128.84091 -10.973778 2.5501058
128.84091 4.0262222 3.6905246
128.84091 19.026222 3.0387855
143.84091 -40.973778 3.4889865
143.84091 -25.973778 2.1282144
143.84091 -10.973778 2.8979058
143.84091 4.0262222 3.4431529
143.84091 19.026222 3.5668387
158.84091 -40.973778 4.250916
158.84091 -25.973778 3.2726386
158.84091 -10.973778 3.4824789
158.84091 4.0262222 3.3979123
158.84091 19.026222 3.4205327
173.84091 -40.973778 3.7617774
173.84091 -25.973778 4.3393335
173.84091 -10.973778 4.0612106
173.84091 4.0262222 3.6121173
173.84091 19.026222 3.5050149
188.84091 -40.973778 4.295125
188.84091 -25.973778 4.2298679
188.84091 -10.973778 4.7897096
188.84091 4.0262222 4.4254599
188.84091 19.026222 3.836664
203.84091 -40.973778 4.3872156
203.84091 -25.973778 4.3872156
203.84091 -10.973778 4.6124039
203.84091 4.0262222 4.6124039
203.84091 19.026222 4.2009134
