# .PCD v0.7 - Point Cloud Data file format
VERSION 0.7
FIELDS x y z
SIZE 4 4 4
TYPE F F F
COUNT 1 1 1
WIDTH 72
HEIGHT 1
VIEWPOINT 0 0 0 1 0 0 0
POINTS 72
DATA ascii
-117.92973 -67.97538 -1.9404815
-117.92973 -52.97538 -1.744615
-117.92973 -37.97538 -1.5294981
-117.92973 -22.97538 -1.4207191
-117.92973 -7.9753799 -1.613185
-117.92973 7.0246201 -1.6367801
-102.92973 -67.97538 -1.6697886
-102.92973 -52.97538 -1.4638941
-102.92973 -37.97538 -1.232142
-102.92973 -22.97538 -1.1954002
-102.92973 -7.9753799 -1.4048728
-102.92973 7.0246201 -1.54046
-87.929733 -67.97538 -1.1399559
-87.929733 -52.97538 -0.94984692
-87.929733 -37.97538 -0.96679169
-87.929733 -22.97538 -1.0222833
-87.929733 -7.9753799 -1.3014945
-87.929733 7.0246201 -1.5439078
-72.929733 -67.97538 -0.79379457
-72.929733 -52.97538 -0.79875338
-72.929733 -37.97538 -0.82290941
-72.929733 -22.97538 -1.0074894
-72.929733 -7.9753799 -1.3531371
-72.929733 7.0246201 -1.5787321
-57.929733 -67.97538 -0.74533635
-57.929733 -52.97538 -0.75595921
-57.929733 -37.97538 -0.83913898
-57.929733 -22.97538 -1.0398746
-57.929733 -7.9753799 -1.3858886
-57.929733 7.0246201 -1.5740315
-42.929733 -67.97538 -0.8070733
-42.929733 -52.97538 -0.83973151
-42.929733 -37.97538 -0.92455298
-42.929733 -22.97538 -1.0527992
-42.929733 -7.9753799 -1.367801
-42.929733 7.0246201 -1.540149
-27.929733 -67.97538 -1.1489254
-27.929733 -52.97538 -1.1753839
-27.929733 -37.97538 -1.1782445
-27.929733 -22.97538 -1.1651459
-27.929733 -7.9753799 -1.3690143
-27.929733 7.0246201 -1.4727585
-12.929733 -67.97538 -1.54331
-12.929733 -52.97538 -1.4720999
-12.929733 -37.97538 -1.4511596
-12.929733 -22.97538 -1.4081089
-12.929733 -7.9753799 -1.5048529
-12.929733 7.0246201 -1.6946784
2.0702667 -67.97538 -1.7106464
2.0702667 -52.97538 -1.6501417
2.0702667 -37.97538 -1.6041367
2.0702667 -22.97538 -1.6401246
2.0702667 -7.9753799 -1.7316927
2.0702667 7.0246201 -1.7675112
17.070267 -67.97538 -1.7895411
17.070267 -52.97538 -1.7498832
17.070267 -37.97538 -1.7241529
17.070267 -22.97538 -1.7584567
17.070267 -7.9753799 -1.8145423
17.070267 7.0246201 -1.8533484
32.070267 -67.97538 -1.8530734
32.070267 -52.97538 -1.8384882
32.070267 -37.97538 -1.8418915
32.070267 -22.97538 -1.8577489
32.070267 -7.9753799 -1.8857116
32.070267 7.0246201 -1.8958411
47.070267 -67.97538 -1.8931311
47.070267 -52.97538 -1.8845912
47.070267 -37.97538 -1.8839471
47.070267 -22.97538 -1.8917103
47.070267 -7.9753799 -1.9019958
47.070267 7.0246201 -1.9060075
