# .PCD v0.7 - Point Cloud Data file format
VERSION 0.7
FIELDS x y z
SIZE 4 4 4
TYPE F F F
COUNT 1 1 1
WIDTH 1508
HEIGHT 1
VIEWPOINT 0 0 0 1 0 0 0
POINTS 1508
DATA ascii
74.090904 -22.692528 -1.5878808
74.090904 -21.773777 -1.5841383
74.090904 -20.892527 -1.57898
74.090904 -20.048777 -1.5724058
74.090904 -19.242527 -1.5644158
74.090904 -18.473778 -1.5550101
74.090904 -17.723776 -1.5414537
74.090904 -16.973778 -1.5210123
74.090904 -16.223778 -1.4936857
74.090904 -15.473777 -1.4594738
74.090904 -14.723778 -1.418377
74.090904 -13.973777 -1.3703948
74.090904 -13.223778 -1.3155277
74.090904 -12.473778 -1.2537752
74.090904 -11.723777 -1.1851376
74.090904 -10.973778 -1.109615
74.090904 -10.223777 -1.0272069
74.090904 -9.4737778 -0.93791395
74.090904 -8.7237778 -0.84173584
74.090904 -7.9737768 -0.73867232
74.090904 -7.2237778 -0.62872392
74.090904 -6.4737768 -0.51189005
74.090904 -5.7237773 -0.38817132
74.090904 -4.9737782 -0.25756744
74.090904 -4.2237768 -0.12007808
74.090904 -3.4737778 0.02429611
74.090904 -2.7050285 0.1678504
74.090904 -1.8987755 0.30288038
74.090904 -1.0550262 0.42938477
74.090904 -0.17377691 0.54736418
74.090904 0.74497223 0.65681869
74.090904 1.7012213 0.75774825
74.090904 2.6949751 0.85015333
74.090904 3.7262242 0.93403292
74.090904 4.7949734 1.0093876
74.090904 5.9012222 1.0762174
74.090904 7.044971 1.1345222
74.090904 8.2262259 1.1843023
74.090904 9.4449749 1.2255572
74.090904 10.701223 1.2582872
74.090904 11.994972 1.2824923
74.090904 13.326221 1.2981724
74.090904 14.694976 1.3053275
74.090904 16.101225 1.3039577
74.090904 17.544973 1.294063
74.090904 19.026222 1.2756432
74.840904 -40.973778 -1.4653687
74.840904 -39.492527 -1.482978
74.840904 -38.048779 -1.4991099
74.840904 -36.642529 -1.5137646
74.840904 -35.273777 -1.5269423
74.840904 -33.942528 -1.5386426
74.840904 -32.648777 -1.5488658
74.840904 -31.392529 -1.5576117
74.840904 -30.173779 -1.5648806
74.840904 -28.992527 -1.5706722
74.840904 -27.848778 -1.5749866
74.840904 -26.742527 -1.5778238
74.840904 -25.673777 -1.5791838
74.840904 -24.642527 -1.5790666
74.840904 -23.648779 -1.5774723
74.840904 -22.692528 -1.5744008
74.840904 -21.773777 -1.569852
74.840904 -20.892527 -1.5638261
74.840904 -20.048777 -1.5563229
74.840904 -19.242527 -1.5473427
74.840904 -18.473778 -1.5368851
74.840904 -17.723776 -1.522325
74.840904 -16.973778 -1.501037
74.840904 -16.223778 -1.473021
74.840904 -15.473777 -1.438277
74.840904 -14.723778 -1.396805
74.840904 -13.973777 -1.348605
74.840904 -13.223778 -1.2936772
74.840904 -12.473778 -1.2320215
74.840904 -11.723777 -1.1636375
74.840904 -10.973778 -1.0885258
74.840904 -10.223777 -1.006686
74.840904 -9.4737778 -0.9181183
74.840904 -8.7237778 -0.82282269
74.840904 -7.9737768 -0.72079891
74.840904 -7.2237778 -0.61204737
74.840904 -6.4737768 -0.49656764
74.840904 -5.7237773 -0.37436017
74.840904 -4.9737782 -0.24542479
74.840904 -4.2237768 -0.10976111
74.840904 -3.4737778 0.032630209
74.840904 -2.7050285 0.17425719
74.840904 -1.8987755 0.30762815
74.840904 -1.0550262 0.43274182
74.840904 -0.17377691 0.54959887
74.840904 0.74497223 0.65819925
74.840904 1.7012213 0.75854301
74.840904 2.6949751 0.85063058
74.840904 3.7262242 0.93446106
74.840904 4.7949734 1.0100349
74.840904 5.9012222 1.077352
74.840904 7.044971 1.1364126
74.840904 8.2262259 1.1872169
74.840904 9.4449749 1.2297641
74.840904 10.701223 1.2640548
74.840904 11.994972 1.2900888
74.840904 13.326221 1.3078661
74.840904 14.694976 1.3173869
74.840904 16.101225 1.318651
74.840904 17.544973 1.3116584
74.840904 19.026222 1.2964091
75.590912 -40.973778 -1.4565284
75.590912 -39.492527 -1.4741782
75.590912 -38.048779 -1.4902891
75.590912 -36.642529 -1.5048612
75.590912 -35.273777 -1.5178945
75.590912 -33.942528 -1.529389
75.590912 -32.648777 -1.5393447
75.590912 -31.392529 -1.5477616
75.590912 -30.173779 -1.5546396
75.590912 -28.992527 -1.5599788
75.590912 -27.848778 -1.5637792
75.590912 -26.742527 -1.5660409
75.590912 -25.673777 -1.5667636
75.590912 -24.642527 -1.5659477
75.590912 -23.648779 -1.5635928
75.590912 -22.692528 -1.5596992
75.590912 -21.773777 -1.5542667
75.590912 -20.892527 -1.5472955
75.590912 -20.048777 -1.5387853
75.590912 -19.242527 -1.5287365
75.590912 -18.473778 -1.5171487
75.590912 -17.723776 -1.5015154
75.590912 -16.973778 -1.4793295
75.590912 -16.223778 -1.4505911
75.590912 -15.473777 -1.4153001
75.590912 -14.723778 -1.3734568
75.590912 -13.973777 -1.3250608
75.590912 -13.223778 -1.2701124
75.590912 -12.473778 -1.2086115
75.590912 -11.723777 -1.140558
75.590912 -10.973778 -1.0659521
75.590912 -10.223777 -0.98479348
75.590912 -9.4737778 -0.89708257
75.590912 -8.7237778 -0.80281919
75.590912 -7.9737768 -0.702003
75.590912 -7.2237778 -0.59463459
75.590912 -6.4737768 -0.4807134
75.590912 -5.7237773 -0.36023998
75.590912 -4.9737782 -0.23321405
75.590912 -4.2237768 -0.099635296
75.590912 -3.4737778 0.040495649
75.590912 -2.7050285 0.17991614
75.590912 -1.8987755 0.31136385
75.590912 -1.0550262 0.43483755
75.590912 -0.17377691 0.55033785
75.590912 0.74497223 0.65786475
75.590912 1.7012213 0.75741827
75.590912 2.6949751 0.84899879
75.590912 3.7262242 0.9326055
75.590912 4.7949734 1.0082388
75.590912 5.9012222 1.0758988
75.590912 7.044971 1.1355853
75.590912 8.2262259 1.1872987
75.590912 9.4449749 1.2310383
75.590912 10.701223 1.2668047
75.590912 11.994972 1.2945976
75.590912 13.326221 1.3144171
75.590912 14.694976 1.3262633
75.590912 16.101225 1.3301361
75.590912 17.544973 1.3260354
75.590912 19.026222 1.3139614
76.340904 -40.973778 -1.4475987
76.340904 -39.492527 -1.4652153
76.340904 -38.048779 -1.4812313
76.340904 -36.642529 -1.4956465
76.340904 -35.273777 -1.5084611
76.340904 -33.942528 -1.5196749
76.340904 -32.648777 -1.5292882
76.340904 -31.392529 -1.5373006
76.340904 -30.173779 -1.5437125
76.340904 -28.992527 -1.5485235
76.340904 -27.848778 -1.5517341
76.340904 -26.742527 -1.5533438
76.340904 -25.673777 -1.553353
76.340904 -24.642527 -1.5517613
76.340904 -23.648779 -1.5485691
76.340904 -22.692528 -1.543776
76.340904 -21.773777 -1.5373824
76.340904 -20.892527 -1.5293881
76.340904 -20.048777 -1.519793
76.340904 -19.242527 -1.5085974
76.340904 -18.473778 -1.495801
76.340904 -17.723776 -1.4790249
76.340904 -16.973778 -1.4558899
76.340904 -16.223778 -1.4263963
76.340904 -15.473777 -1.3905437
76.340904 -14.723778 -1.3483324
76.340904 -13.973777 -1.2997622
76.340904 -13.223778 -1.2448335
76.340904 -12.473778 -1.1835458
76.340904 -11.723777 -1.1158992
76.340904 -10.973778 -1.0418941
76.340904 -10.223777 -0.96152985
76.340904 -9.4737778 -0.87480706
76.340904 -8.7237778 -0.78172553
76.340904 -7.9737768 -0.68228489
76.340904 -7.2237778 -0.57648575
76.340904 -6.4737768 -0.46432757
76.340904 -5.7237773 -0.34581086
76.340904 -4.9737782 -0.22093534
76.340904 -4.2237768 -0.089700729
76.340904 -3.4737778 0.047892362
76.340904 -2.7050285 0.18482724
76.340904 -1.8987755 0.31408751
76.340904 -1.0550262 0.43567193
76.340904 -0.17377691 0.54958111
76.340904 0.74497223 0.65581512
76.340904 1.7012213 0.75437391
76.340904 2.6949751 0.84525794
76.340904 3.7262242 0.92846626
76.340904 4.7949734 1.0039994
76.340904 5.9012222 1.0718573
76.340904 7.044971 1.13204
76.340904 8.2262259 1.1845478
76.340904 9.4449749 1.22938
76.340904 10.701223 1.2665371
76.340904 11.994972 1.296019
76.340904 13.326221 1.3178256
76.340904 14.694976 1.331957
76.340904 16.101225 1.3384132
76.340904 17.544973 1.3371942
76.340904 19.026222 1.3283
77.090904 -40.973778 -1.4379135
77.090904 -39.492527 -1.4554458
77.090904 -38.048779 -1.4713179
77.090904 -36.642529 -1.4855298
77.090904 -35.273777 -1.4980816
77.090904 -33.942528 -1.5089731
77.090904 -32.648777 -1.5182046
77.090904 -31.392529 -1.5257758
77.090904 -30.173779 -1.5316869
77.090904 -28.992527 -1.5359377
77.090904 -27.848778 -1.5385284
77.090904 -26.742527 -1.539459
77.090904 -25.673777 -1.5387293
77.090904 -24.642527 -1.5363395
77.090904 -23.648779 -1.5322895
77.090904 -22.692528 -1.5265793
77.090904 -21.773777 -1.5192089
77.090904 -20.892527 -1.5101784
77.090904 -20.048777 -1.4994878
77.090904 -19.242527 -1.4871368
77.090904 -18.473778 -1.4731258
77.090904 -17.723776 -1.4552046
77.090904 -16.973778 -1.4311233
77.090904 -16.223778 -1.4008816
77.090904 -15.473777 -1.3644799
77.090904 -14.723778 -1.321918
77.090904 -13.973777 -1.2731959
77.090904 -13.223778 -1.2183137
77.090904 -12.473778 -1.1572714
77.090904 -11.723777 -1.0900687
77.090904 -10.973778 -1.0167061
77.090904 -10.223777 -0.93718302
77.090904 -9.4737778 -0.85150003
77.090904 -8.7237778 -0.75965691
77.090904 -7.9737768 -0.66165334
77.090904 -7.2237778 -0.55748987
77.090904 -6.4737768 -0.447166
77.090904 -5.7237773 -0.33068219
77.090904 -4.9737782 -0.20803823
77.090904 -4.2237768 -0.079233795
77.090904 -3.4737778 0.055730492
77.090904 -2.7050285 0.19008528
77.090904 -1.8987755 0.31706148
77.090904 -1.0550262 0.43665791
77.090904 -0.17377691 0.54887521
77.090904 0.74497223 0.65371329
77.090904 1.7012213 0.75117224
77.090904 2.6949751 0.84125245
77.090904 3.7262242 0.92395306
77.090904 4.7949734 0.99927449
77.090904 5.9012222 1.0672168
77.090904 7.044971 1.1277798
77.090904 8.2262259 1.1809641
77.090904 9.4449749 1.2267689
77.090904 10.701223 1.2651944
77.090904 11.994972 1.2962408
77.090904 13.326221 1.3199081
77.090904 14.694976 1.3361963
77.090904 16.101225 1.3451053
77.090904 17.544973 1.346635
77.090904 19.026222 1.3407856
77.840904 -40.973778 -1.4268069
77.840904 -39.492527 -1.4442263
77.840904 -38.048779 -1.4599309
77.840904 -36.642529 -1.4739208
77.840904 -35.273777 -1.4861962
77.840904 -33.942528 -1.4967568
77.840904 -32.648777 -1.5056027
77.840904 -31.392529 -1.5127341
77.840904 -30.173779 -1.5181508
77.840904 -28.992527 -1.5218529
77.840904 -27.848778 -1.5238402
77.840904 -26.742527 -1.5241129
77.840904 -25.673777 -1.522671
77.840904 -24.642527 -1.5195143
77.840904 -23.648779 -1.5146432
77.840904 -22.692528 -1.5080572
77.840904 -21.773777 -1.4997567
77.840904 -20.892527 -1.4897414
77.840904 -20.048777 -1.4780116
77.840904 -19.242527 -1.4645671
77.840904 -18.473778 -1.4494079
77.840904 -17.723776 -1.4304065
77.840904 -16.973778 -1.405435
77.840904 -16.223778 -1.3744935
77.840904 -15.473777 -1.337582
77.840904 -14.723778 -1.2947006
77.840904 -13.973777 -1.245849
77.840904 -13.223778 -1.1910276
77.840904 -12.473778 -1.1302363
77.840904 -11.723777 -1.0634748
77.840904 -10.973778 -0.99074346
77.840904 -10.223777 -0.91204196
77.840904 -9.4737778 -0.8273707
77.840904 -8.7237778 -0.73672938
77.840904 -7.9737768 -0.64011788
77.840904 -7.2237778 -0.53753668
77.840904 -6.4737768 -0.42898518
77.840904 -5.7237773 -0.31446397
77.840904 -4.9737782 -0.19397277
77.840904 -4.2237768 -0.067511298
77.840904 -3.4737778 0.064919867
77.840904 -2.7050285 0.19678485
77.840904 -1.8987755 0.3215481
77.840904 -1.0550262 0.43920842
77.840904 -0.17377691 0.54976642
77.840904 0.74497223 0.65322208
77.840904 1.7012213 0.74957544
77.840904 2.6949751 0.83882689
77.840904 3.7262242 0.92097557
77.840904 4.7949734 0.99602193
77.840904 5.9012222 1.063966
77.840904 7.044971 1.1248077
77.840904 8.2262259 1.1785474
77.840904 9.4449749 1.2251844
77.840904 10.701223 1.2647191
77.840904 11.994972 1.2971516
77.840904 13.326221 1.3224816
77.840904 14.694976 1.3407094
77.840904 16.101225 1.3518349
77.840904 17.544973 1.355858
77.840904 19.026222 1.3527787
78.590904 -40.973778 -1.4142789
78.590904 -39.492527 -1.4315565
78.590904 -38.048779 -1.4470699
78.590904 -36.642529 -1.4608192
78.590904 -35.273777 -1.4728044
78.590904 -33.942528 -1.4830256
78.590904 -32.648777 -1.4914825
78.590904 -31.392529 -1.4981753
78.590904 -30.173779 -1.503104
78.590904 -28.992527 -1.5062686
78.590904 -27.848778 -1.5076691
78.590904 -26.742527 -1.5073054
78.590904 -25.673777 -1.5051776
78.590904 -24.642527 -1.5012857
78.590904 -23.648779 -1.4956297
78.590904 -22.692528 -1.4882095
78.590904 -21.773777 -1.4790252
78.590904 -20.892527 -1.4680768
78.590904 -20.048777 -1.4553642
78.590904 -19.242527 -1.4408876
78.590904 -18.473778 -1.4246469
78.590904 -17.723776 -1.4046298
78.590904 -16.973778 -1.3788246
78.590904 -16.223778 -1.3472311
78.590904 -15.473777 -1.3098494
78.590904 -14.723778 -1.2666795
78.590904 -13.973777 -1.2177212
78.590904 -13.223778 -1.1629747
78.590904 -12.473778 -1.10244
78.590904 -11.723777 -1.036117
78.590904 -10.973778 -0.96400577
78.590904 -10.223777 -0.88610613
78.590904 -9.4737778 -0.80241847
78.590904 -8.7237778 -0.71294254
78.590904 -7.9737768 -0.61767817
78.590904 -7.2237778 -0.5166257
78.590904 -6.4737768 -0.40978479
78.590904 -5.7237773 -0.29715589
78.590904 -4.9737782 -0.17873871
78.590904 -4.2237768 -0.054533001
78.590904 -3.4737778 0.075460665
78.590904 -2.7050285 0.2049261
78.590904 -1.8987755 0.32754743
78.590904 -1.0550262 0.44332349
78.590904 -0.17377691 0.55225486
78.590904 0.74497223 0.65434152
78.590904 1.7012213 0.74958348
78.590904 2.6949751 0.83798122
78.590904 3.7262242 0.91953379
78.590904 4.7949734 0.99424171
78.590904 5.9012222 1.0621049
78.590904 7.044971 1.1231235
78.590904 8.2262259 1.1772976
78.590904 9.4449749 1.2246267
78.590904 10.701223 1.2651112
78.590904 11.994972 1.2987509
78.590904 13.326221 1.325546
78.590904 14.694976 1.3454965
78.590904 16.101225 1.3586022
78.590904 17.544973 1.3648632
78.590904 19.026222 1.3642795
79.340912 -40.973778 -1.4003294
79.340912 -39.492527 -1.4174366
79.340912 -38.048779 -1.4327352
79.340912 -36.642529 -1.4462252
79.340912 -35.273777 -1.4579066
79.340912 -33.942528 -1.4677795
79.340912 -32.648777 -1.4758438
79.340912 -31.392529 -1.4820995
79.340912 -30.173779 -1.4865466
79.340912 -28.992527 -1.4891852
79.340912 -27.848778 -1.4900151
79.340912 -26.742527 -1.4890366
79.340912 -25.673777 -1.4862493
79.340912 -24.642527 -1.4816536
79.340912 -23.648779 -1.4752492
79.340912 -22.692528 -1.4670362
79.340912 -21.773777 -1.4570147
79.340912 -20.892527 -1.4451846
79.340912 -20.048777 -1.4315459
79.340912 -19.242527 -1.4160987
79.340912 -18.473778 -1.3988428
79.340912 -17.723776 -1.3778752
79.340912 -16.973778 -1.3512926
79.340912 -16.223778 -1.319095
79.340912 -15.473777 -1.2812825
79.340912 -14.723778 -1.2378551
79.340912 -13.973777 -1.1888125
79.340912 -13.223778 -1.1341552
79.340912 -12.473778 -1.0738829
79.340912 -11.723777 -1.0079955
79.340912 -10.973778 -0.93649322
79.340912 -10.223777 -0.85937583
79.340912 -9.4737778 -0.77664369
79.340912 -8.7237778 -0.68829656
79.340912 -7.9737768 -0.5943343
79.340912 -7.2237778 -0.49475726
79.340912 -6.4737768 -0.38956502
79.340912 -5.7237773 -0.27875808
79.340912 -4.9737782 -0.16233617
79.340912 -4.2237768 -0.040299017
79.340912 -3.4737778 0.087352805
79.340912 -2.7050285 0.21450898
79.340912 -1.8987755 0.33505946
79.340912 -1.0550262 0.44900307
79.340912 -0.17377691 0.55634046
79.340912 0.74497223 0.65707159
79.340912 1.7012213 0.75119644
79.340912 2.6949751 0.83871543
79.340912 3.7262242 0.91962779
79.340912 4.7949734 0.99393386
79.340912 5.9012222 1.0616337
79.340912 7.044971 1.1227273
79.340912 8.2262259 1.1772147
79.340912 9.4449749 1.2250959
79.340912 10.701223 1.2663705
79.340912 11.994972 1.3010391
79.340912 13.326221 1.3291013
79.340912 14.694976 1.3505574
79.340912 16.101225 1.3654071
79.340912 17.544973 1.3736507
79.340912 19.026222 1.3752878
80.090904 -40.973778 -1.3849585
80.090904 -39.492527 -1.4018667
80.090904 -38.048779 -1.4169267
80.090904 -36.642529 -1.4301388
80.090904 -35.273777 -1.4415029
80.090904 -33.942528 -1.4510189
80.090904 -32.648777 -1.4586869
80.090904 -31.392529 -1.4645069
80.090904 -30.173779 -1.4684788
80.090904 -28.992527 -1.4706028
80.090904 -27.848778 -1.4708786
80.090904 -26.742527 -1.4693065
80.090904 -25.673777 -1.4658864
80.090904 -24.642527 -1.4606181
80.090904 -23.648779 -1.4535019
80.090904 -22.692528 -1.4445378
80.090904 -21.773777 -1.4337255
80.090904 -20.892527 -1.4210651
80.090904 -20.048777 -1.4065568
80.090904 -19.242527 -1.3902005
80.090904 -18.473778 -1.371996
80.090904 -17.723776 -1.3501426
80.090904 -16.973778 -1.322839
80.090904 -16.223778 -1.2900853
80.090904 -15.473777 -1.2518815
80.090904 -14.723778 -1.2082276
80.090904 -13.973777 -1.1591234
80.090904 -13.223778 -1.1045693
80.090904 -12.473778 -1.0445651
80.090904 -11.723777 -0.97911054
80.090904 -10.973778 -0.90820605
80.090904 -10.223777 -0.8318513
80.090904 -9.4737778 -0.75004655
80.090904 -8.7237778 -0.66279173
80.090904 -7.9737768 -0.57008654
80.090904 -7.2237778 -0.47193149
80.090904 -6.4737768 -0.36832604
80.090904 -5.7237773 -0.25927073
80.090904 -4.9737782 -0.14476532
80.090904 -4.2237768 -0.024809498
80.090904 -3.4737778 0.10059615
80.090904 -2.7050285 0.22553335
80.090904 -1.8987755 0.34408405
80.090904 -1.0550262 0.45624715
80.090904 -0.17377691 0.56202322
80.090904 0.74497223 0.66141224
80.090904 1.7012213 0.75441426
80.090904 2.6949751 0.84102958
80.090904 3.7262242 0.9212575
80.090904 4.7949734 0.99509835
80.090904 5.9012222 1.0625522
80.090904 7.044971 1.123619
80.090904 8.2262259 1.178299
80.090904 9.4449749 1.2265917
80.090904 10.701223 1.2684973
80.090904 11.994972 1.304016
80.090904 13.326221 1.3331475
80.090904 14.694976 1.3558922
80.090904 16.101225 1.3722497
80.090904 17.544973 1.3822201
80.090904 19.026222 1.3858036
80.840904 -40.973778 -1.3681662
80.840904 -39.492527 -1.3848466
80.840904 -38.048779 -1.3996445
80.840904 -36.642529 -1.41256
80.840904 -35.273777 -1.4235929
80.840904 -33.942528 -1.4327434
80.840904 -32.648777 -1.4400115
80.840904 -31.392529 -1.4453971
80.840904 -30.173779 -1.4489003
80.840904 -28.992527 -1.450521
80.840904 -27.848778 -1.4502592
80.840904 -26.742527 -1.448115
80.840904 -25.673777 -1.4440883
80.840904 -24.642527 -1.4381791
80.840904 -23.648779 -1.4303875
80.840904 -22.692528 -1.4207134
80.840904 -21.773777 -1.4091569
80.840904 -20.892527 -1.3957179
80.840904 -20.048777 -1.3803965
80.840904 -19.242527 -1.3631926
80.840904 -18.473778 -1.3441061
80.840904 -17.723776 -1.3214316
80.840904 -16.973778 -1.2934635
80.840904 -16.223778 -1.2602016
80.840904 -15.473777 -1.2216458
80.840904 -14.723778 -1.1777965
80.840904 -13.973777 -1.1286533
80.840904 -13.223778 -1.0742166
80.840904 -12.473778 -1.0144861
80.840904 -11.723777 -0.9494617
80.840904 -10.973778 -0.87914377
80.840904 -10.223777 -0.80353194
80.840904 -9.4737778 -0.72262657
80.840904 -8.7237778 -0.63642752
80.840904 -7.9737768 -0.54493445
80.840904 -7.2237778 -0.44814795
80.840904 -6.4737768 -0.34606746
80.840904 -5.7237773 -0.23869351
80.840904 -4.9737782 -0.12602583
80.840904 -4.2237768 -0.0080641517
80.840904 -3.4737778 0.11519097
80.840904 -2.7050285 0.23799942
80.840904 -1.8987755 0.35462141
80.840904 -1.0550262 0.46505582
80.840904 -0.17377691 0.56930321
80.840904 0.74497223 0.66736358
80.840904 1.7012213 0.75923693
80.840904 2.6949751 0.84492362
80.840904 3.7262242 0.92442292
80.840904 4.7949734 0.9977352
80.840904 5.9012222 1.0648605
80.840904 7.044971 1.1257987
80.840904 8.2262259 1.1805501
80.840904 9.4449749 1.2291143
80.840904 10.701223 1.2714914
80.840904 11.994972 1.3076816
80.840904 13.326221 1.3376848
80.840904 14.694976 1.3615009
80.840904 16.101225 1.37913
80.840904 17.544973 1.390572
80.840904 19.026222 1.3958271
81.590904 -40.973778 -1.3499526
81.590904 -39.492527 -1.3663765
81.590904 -38.048779 -1.3808886
81.590904 -36.642529 -1.3934888
81.590904 -35.273777 -1.4041771
81.590904 -33.942528 -1.4129535
81.590904 -32.648777 -1.419818
81.590904 -31.392529 -1.4247706
81.590904 -30.173779 -1.4278114
81.590904 -28.992527 -1.4289403
81.590904 -27.848778 -1.4281572
81.590904 -26.742527 -1.4254624
81.590904 -25.673777 -1.4208556
81.590904 -24.642527 -1.4143369
81.590904 -23.648779 -1.4059064
81.590904 -22.692528 -1.395564
81.590904 -21.773777 -1.3833096
81.590904 -20.892527 -1.3691434
81.590904 -20.048777 -1.3530654
81.590904 -19.242527 -1.3350754
81.590904 -18.473778 -1.3151735
81.590904 -17.723776 -1.2917428
81.590904 -16.973778 -1.2631663
81.590904 -16.223778 -1.2294441
81.590904 -15.473777 -1.1905761
81.590904 -14.723778 -1.1465623
81.590904 -13.973777 -1.0974028
81.590904 -13.223778 -1.0430975
81.590904 -12.473778 -0.98364645
81.590904 -11.723777 -0.9190495
81.590904 -10.973778 -0.84930694
81.590904 -10.223777 -0.77441841
81.590904 -9.4737778 -0.69438428
81.590904 -8.7237778 -0.60920441
81.590904 -7.9737768 -0.51887858
81.590904 -7.2237778 -0.42340714
81.590904 -6.4737768 -0.32278973
81.590904 -5.7237773 -0.21702677
81.590904 -4.9737782 -0.10611805
81.590904 -4.2237768 0.0099367062
81.590904 -3.4737778 0.13113695
81.590904 -2.7050285 0.25190699
81.590904 -1.8987755 0.36667135
81.590904 -1.0550262 0.47542891
81.590904 -0.17377691 0.57818031
81.590904 0.74497223 0.67492545
81.590904 1.7012213 0.7656644
81.590904 2.6949751 0.85039753
81.590904 3.7262242 0.92912406
81.590904 4.7949734 1.0018444
81.590904 5.9012222 1.0685585
81.590904 7.044971 1.1292664
81.590904 8.2262259 1.1839682
81.590904 9.4449749 1.2326636
81.590904 10.701223 1.275353
81.590904 11.994972 1.3120359
81.590904 13.326221 1.3427128
81.590904 14.694976 1.3673835
81.590904 16.101225 1.3860478
81.590904 17.544973 1.398706
81.590904 19.026222 1.4053578
82.340904 -40.973778 -1.3303174
82.340904 -39.492527 -1.3464562
82.340904 -38.048779 -1.3606586
82.340904 -36.642529 -1.3729249
82.340904 -35.273777 -1.3832549
82.340904 -33.942528 -1.3916485
82.340904 -32.648777 -1.3981059
82.340904 -31.392529 -1.402627
82.340904 -30.173779 -1.4052117
82.340904 -28.992527 -1.4058602
82.340904 -27.848778 -1.4045724
82.340904 -26.742527 -1.4013482
82.340904 -25.673777 -1.3961878
82.340904 -24.642527 -1.389091
82.340904 -23.648779 -1.3800581
82.340904 -22.692528 -1.3690886
82.340904 -21.773777 -1.3561831
82.340904 -20.892527 -1.3413411
82.340904 -20.048777 -1.3245629
82.340904 -19.242527 -1.3058485
82.340904 -18.473778 -1.2851977
82.340904 -17.723776 -1.2610756
82.340904 -16.973778 -1.2319472
82.340904 -16.223778 -1.1978127
82.340904 -15.473777 -1.1586717
82.340904 -14.723778 -1.1145246
82.340904 -13.973777 -1.0653712
82.340904 -13.223778 -1.0112115
82.340904 -12.473778 -0.95204562
82.340904 -11.723777 -0.88787335
82.340904 -10.973778 -0.81869489
82.340904 -10.223777 -0.74451005
82.340904 -9.4737778 -0.66531914
82.340904 -8.7237778 -0.58112192
82.340904 -7.9737768 -0.49191827
82.340904 -7.2237778 -0.39770856
82.340904 -6.4737768 -0.29849234
82.340904 -5.7237773 -0.1942701
82.340904 -4.9737782 -0.085041612
82.340904 -4.2237768 0.029193418
82.340904 -3.4737778 0.14843445
82.340904 -2.7050285 0.26725629
82.340904 -1.8987755 0.38023406
82.340904 -1.0550262 0.48736665
82.340904 -0.17377691 0.58865464
82.340904 0.74497223 0.68409806
82.340904 1.7012213 0.77369684
82.340904 2.6949751 0.85745144
82.340904 3.7262242 0.93536097
82.340904 4.7949734 1.0074259
82.340904 5.9012222 1.0736463
82.340904 7.044971 1.134022
82.340904 8.2262259 1.1885533
82.340904 9.4449749 1.2372398
82.340904 10.701223 1.2800817
82.340904 11.994972 1.3170791
82.340904 13.326221 1.3482317
82.340904 14.694976 1.3735399
82.340904 16.101225 1.3930033
82.340904 17.544973 1.4066222
82.340904 19.026222 1.4143964
83.090912 -40.973778 -1.3092607
83.090912 -39.492527 -1.3250858
83.090912 -38.048779 -1.338955
83.090912 -36.642529 -1.3508687
83.090912 -35.273777 -1.3608266
83.090912 -33.942528 -1.3688289
83.090912 -32.648777 -1.3748754
83.090912 -31.392529 -1.3789662
83.090912 -30.173779 -1.3811014
83.090912 -28.992527 -1.3812809
83.090912 -27.848778 -1.3795047
83.090912 -26.742527 -1.3757727
83.090912 -25.673777 -1.370085
83.090912 -24.642527 -1.3624417
83.090912 -23.648779 -1.3528427
83.090912 -22.692528 -1.341288
83.090912 -21.773777 -1.3277775
83.090912 -20.892527 -1.3123114
83.090912 -20.048777 -1.2948896
83.090912 -19.242527 -1.2755121
83.090912 -18.473778 -1.2541789
83.090912 -17.723776 -1.2294302
83.090912 -16.973778 -1.1998063
83.090912 -16.223778 -1.1653073
83.090912 -15.473777 -1.1259329
83.090912 -14.723778 -1.0816835
83.090912 -13.973777 -1.0325588
83.090912 -13.223778 -0.9785589
83.090912 -12.473778 -0.91968387
83.090912 -11.723777 -0.85593349
83.090912 -10.973778 -0.78730804
83.090912 -10.223777 -0.71380723
83.090912 -9.4737778 -0.63543141
83.090912 -8.7237778 -0.55218035
83.090912 -7.9737768 -0.4640539
83.090912 -7.2237778 -0.37105244
83.090912 -6.4737768 -0.27317557
83.090912 -5.7237773 -0.17042373
83.090912 -4.9737782 -0.06279669
83.090912 -4.2237768 0.049705818
83.090912 -3.4737778 0.16708326
83.090912 -2.7050285 0.28404719
83.090912 -1.8987755 0.39530945
83.090912 -1.0550262 0.50086892
83.090912 -0.17377691 0.60072619
83.090912 0.74497223 0.69488126
83.090912 1.7012213 0.78333414
83.090912 2.6949751 0.86608517
83.090912 3.7262242 0.94313359
83.090912 4.7949734 1.0144799
83.090912 5.9012222 1.0801238
83.090912 7.044971 1.1400657
83.090912 8.2262259 1.1943054
83.090912 9.4449749 1.2428428
83.090912 10.701223 1.2856779
83.090912 11.994972 1.3228109
83.090912 13.326221 1.3542416
83.090912 14.694976 1.3799702
83.090912 16.101225 1.3999965
83.090912 17.544973 1.4143206
83.090912 19.026222 1.4229424
83.840904 -40.973778 -1.2867829
83.840904 -39.492527 -1.3022654
83.840904 -38.048779 -1.3157778
83.840904 -36.642529 -1.3273202
83.840904 -35.273777 -1.3368925
83.840904 -33.942528 -1.3444947
83.840904 -32.648777 -1.3501269
83.840904 -31.392529 -1.3537889
83.840904 -30.173779 -1.3554808
83.840904 -28.992527 -1.3552027
83.840904 -27.848778 -1.3529544
83.840904 -26.742527 -1.348736
83.840904 -25.673777 -1.3425477
83.840904 -24.642527 -1.3343892
83.840904 -23.648779 -1.3242607
83.840904 -22.692528 -1.312162
83.840904 -21.773777 -1.2980932
83.840904 -20.892527 -1.2820544
83.840904 -20.048777 -1.2640455
83.840904 -19.242527 -1.2440665
83.840904 -18.473778 -1.2221174
83.840904 -17.723776 -1.196807
83.840904 -16.973778 -1.166744
83.840904 -16.223778 -1.1319284
83.840904 -15.473777 -1.0923601
83.840904 -14.723778 -1.0480394
83.840904 -13.973777 -0.99896598
83.840904 -13.223778 -0.94514006
83.840904 -12.473778 -0.88656151
83.840904 -11.723777 -0.82323033
83.840904 -10.973778 -0.75514662
83.840904 -10.223777 -0.68231016
83.840904 -9.4737778 -0.60472137
83.840904 -8.7237778 -0.52237993
83.840904 -7.9737768 -0.43528569
83.840904 -7.2237778 -0.34343907
83.840904 -6.4737768 -0.24683966
83.840904 -5.7237773 -0.14548787
83.840904 -4.9737782 -0.039383519
83.840904 -4.2237768 0.071473688
83.840904 -3.4737778 0.18708323
83.840904 -2.7050285 0.30227953
83.840904 -1.8987755 0.41189733
83.840904 -1.0550262 0.5159356
83.840904 -0.17377691 0.61439484
83.840904 0.74497223 0.70727503
83.840904 1.7012213 0.79457623
83.840904 2.6949751 0.87629879
83.840904 3.7262242 0.95244193
83.840904 4.7949734 1.023006
83.840904 5.9012222 1.0879911
83.840904 7.044971 1.1473972
83.840904 8.2262259 1.2012244
83.840904 9.4449749 1.2494725
83.840904 10.701223 1.2921414
83.840904 11.994972 1.3292314
83.840904 13.326221 1.3607423
83.840904 14.694976 1.3866744
83.840904 16.101225 1.4070272
83.840904 17.544973 1.4218011
83.840904 19.026222 1.4309959
84.590904 -40.973778 -1.2628833
84.590904 -39.492527 -1.2779946
84.590904 -38.048779 -1.2911266
84.590904 -36.642529 -1.302279
84.590904 -35.273777 -1.311452
84.590904 -33.942528 -1.3186456
84.590904 -32.648777 -1.3238596
84.590904 -31.392529 -1.3270942
84.590904 -30.173779 -1.3283494
84.590904 -28.992527 -1.327625
84.590904 -27.848778 -1.3249213
84.590904 -26.742527 -1.320238
84.590904 -25.673777 -1.3135753
84.590904 -24.642527 -1.3049331
84.590904 -23.648779 -1.2943114
84.590904 -22.692528 -1.2817103
84.590904 -21.773777 -1.2671297
84.590904 -20.892527 -1.2505696
84.590904 -20.048777 -1.2320302
84.590904 -19.242527 -1.2115111
84.590904 -18.473778 -1.1890128
84.590904 -17.723776 -1.1632053
84.590904 -16.973778 -1.1327596
84.590904 -16.223778 -1.0976753
84.590904 -15.473777 -1.0579526
84.590904 -14.723778 -1.0135916
84.590904 -13.973777 -0.9645921
84.590904 -13.223778 -0.91095424
84.590904 -12.473778 -0.85267794
84.590904 -11.723777 -0.78976315
84.590904 -10.973778 -0.72221005
84.590904 -10.223777 -0.65001833
84.590904 -9.4737778 -0.57318842
84.590904 -8.7237778 -0.49172008
84.590904 -7.9737768 -0.40561309
84.590904 -7.2237778 -0.31486791
84.590904 -6.4737768 -0.21948409
84.590904 -5.7237773 -0.11946208
84.590904 -4.9737782 -0.01480165
84.590904 -4.2237768 0.094497457
84.590904 -3.4737778 0.20843472
84.590904 -2.7050285 0.32195365
84.590904 -1.8987755 0.42999807
84.590904 -1.0550262 0.53256696
84.590904 -0.17377691 0.62966073
84.590904 0.74497223 0.72127956
84.590904 1.7012213 0.80742329
84.590904 2.6949751 0.88809234
84.590904 3.7262242 0.96328604
84.590904 4.7949734 1.0330046
84.590904 5.9012222 1.0972482
84.590904 7.044971 1.1560167
84.590904 8.2262259 1.2093105
84.590904 9.4449749 1.257129
84.590904 10.701223 1.2994723
84.590904 11.994972 1.3363408
84.590904 13.326221 1.3677341
84.590904 14.694976 1.3936524
84.590904 16.101225 1.4140958
84.590904 17.544973 1.4290639
84.590904 19.026222 1.4385571
85.340904 -40.973778 -1.2375627
85.340904 -39.492527 -1.2522742
85.340904 -38.048779 -1.2650018
85.340904 -36.642529 -1.2757457
85.340904 -35.273777 -1.2845057
85.340904 -33.942528 -1.2912819
85.340904 -32.648777 -1.2960743
85.340904 -31.392529 -1.2988828
85.340904 -30.173779 -1.2997075
85.340904 -28.992527 -1.2985485
85.340904 -27.848778 -1.2954055
85.340904 -26.742527 -1.2902787
85.340904 -25.673777 -1.2831681
85.340904 -24.642527 -1.2740737
85.340904 -23.648779 -1.2629955
85.340904 -22.692528 -1.2499334
85.340904 -21.773777 -1.2348874
85.340904 -20.892527 -1.2178576
85.340904 -20.048777 -1.1988441
85.340904 -19.242527 -1.1778467
85.340904 -18.473778 -1.1548654
85.340904 -17.723776 -1.1286259
85.340904 -16.973778 -1.0978537
85.340904 -16.223778 -1.0625488
85.340904 -15.473777 -1.0227112
85.340904 -14.723778 -0.97834086
85.340904 -13.973777 -0.92943782
85.340904 -13.223778 -0.87600213
85.340904 -12.473778 -0.81803381
85.340904 -11.723777 -0.75553262
85.340904 -10.973778 -0.68849891
85.340904 -10.223777 -0.61693233
85.340904 -9.4737778 -0.54083323
85.340904 -8.7237778 -0.46020141
85.340904 -7.9737768 -0.37503672
85.340904 -7.2237778 -0.2853395
85.340904 -6.4737768 -0.1911094
85.340904 -5.7237773 -0.092346817
85.340904 -4.9737782 0.010948449
85.340904 -4.2237768 0.11877667
85.340904 -3.4737778 0.23113732
85.340904 -2.7050285 0.3430692
85.340904 -1.8987755 0.44961131
85.340904 -1.0550262 0.55076265
85.340904 -0.17377691 0.64652371
85.340904 0.74497223 0.73689455
85.340904 1.7012213 0.8218751
85.340904 2.6949751 0.90146571
85.340904 3.7262242 0.97566575
85.340904 4.7949734 1.0444756
85.340904 5.9012222 1.107895
85.340904 7.044971 1.1659242
85.340904 8.2262259 1.2185634
85.340904 9.4449749 1.2658122
85.340904 10.701223 1.3076706
85.340904 11.994972 1.3441387
85.340904 13.326221 1.3752166
85.340904 14.694976 1.4009044
85.340904 16.101225 1.4212018
85.340904 17.544973 1.4361089
85.340904 19.026222 1.4456258
86.090904 -40.973778 -1.2108202
86.090904 -39.492527 -1.2251033
86.090904 -38.048779 -1.237403
86.090904 -36.642529 -1.2477196
86.090904 -35.273777 -1.2560531
86.090904 -33.942528 -1.2624034
86.090904 -32.648777 -1.2667704
86.090904 -31.392529 -1.2691543
86.090904 -30.173779 -1.269555
86.090904 -28.992527 -1.2679725
86.090904 -27.848778 -1.2644068
86.090904 -26.742527 -1.258858
86.090904 -25.673777 -1.2513258
86.090904 -24.642527 -1.2418106
86.090904 -23.648779 -1.2303122
86.090904 -22.692528 -1.2168306
86.090904 -21.773777 -1.2013658
86.090904 -20.892527 -1.1839178
86.090904 -20.048777 -1.1644866
86.090904 -19.242527 -1.1430724
86.090904 -18.473778 -1.1196748
86.090904 -17.723776 -1.0930679
86.090904 -16.973778 -1.0620257
86.090904 -16.223778 -1.026548
86.090904 -15.473777 -0.98663491
86.090904 -14.723778 -0.94228643
86.090904 -13.973777 -0.89350241
86.090904 -13.223778 -0.84028316
86.090904 -12.473778 -0.78262842
86.090904 -11.723777 -0.72053814
86.090904 -10.973778 -0.65401262
86.090904 -10.223777 -0.5830515
86.090904 -9.4737778 -0.50765508
86.090904 -8.7237778 -0.42782331
86.090904 -7.9737768 -0.3435559
86.090904 -7.2237778 -0.25485331
86.090904 -6.4737768 -0.16171505
86.090904 -5.7237773 -0.064141594
86.090904 -4.9737782 0.037867267
86.090904 -4.2237768 0.1443118
86.090904 -3.4737778 0.25519148
86.090904 -2.7050285 0.36562654
86.090904 -1.8987755 0.4707374
86.090904 -1.0550262 0.57052302
86.090904 -0.17377691 0.66498399
86.090904 0.74497223 0.75412029
86.090904 1.7012213 0.83793187
86.090904 2.6949751 0.91641915
86.090904 3.7262242 0.98958135
86.090904 4.7949734 1.0574188
86.090904 5.9012222 1.1199317
86.090904 7.044971 1.1771197
86.090904 8.2262259 1.2289834
86.090904 9.4449749 1.2755221
86.090904 10.701223 1.3167362
86.090904 11.994972 1.3526255
86.090904 13.326221 1.3831902
86.090904 14.694976 1.4084303
86.090904 16.101225 1.4283456
86.090904 17.544973 1.4429361
86.090904 19.026222 1.452202
86.840912 -40.973778 -1.1826564
86.840912 -39.492527 -1.1964822
86.840912 -38.048779 -1.2083305
86.840912 -36.642529 -1.2182012
86.840912 -35.273777 -1.2260944
86.840912 -33.942528 -1.23201
86.840912 -32.648777 -1.2359481
86.840912 -31.392529 -1.2379087
86.840912 -30.173779 -1.2378918
86.840912 -28.992527 -1.2358973
86.840912 -27.848778 -1.2319252
86.840912 -26.742527 -1.2259758
86.840912 -25.673777 -1.2180487
86.840912 -24.642527 -1.2081441
86.840912 -23.648779 -1.196262
86.840912 -22.692528 -1.1824024
86.840912 -21.773777 -1.1665652
86.840912 -20.892527 -1.1487504
86.840912 -20.048777 -1.1289582
86.840912 -19.242527 -1.1071885
86.840912 -18.473778 -1.0834413
86.840912 -17.723776 -1.0565318
86.840912 -16.973778 -1.0252759
86.840912 -16.223778 -0.98967344
86.840912 -15.473777 -0.94972432
86.840912 -14.723778 -0.90542865
86.840912 -13.973777 -0.85678631
86.840912 -13.223778 -0.80379748
86.840912 -12.473778 -0.74646211
86.840912 -11.723777 -0.68478
86.840912 -10.973778 -0.61875141
86.840912 -10.223777 -0.54837614
86.840912 -9.4737778 -0.47365439
86.840912 -8.7237778 -0.39458609
86.840912 -7.9737768 -0.31117103
86.840912 -7.2237778 -0.22340955
86.840912 -6.4737768 -0.13130128
86.840912 -5.7237773 -0.034846645
86.840912 -4.9737782 0.065954566
86.840912 -4.2237768 0.17110261
86.840912 -3.4737778 0.280597
86.840912 -2.7050285 0.38962549
86.840912 -1.8987755 0.49337617
86.840912 -1.0550262 0.59184802
86.840912 -0.17377691 0.68504149
86.840912 0.74497223 0.77295667
86.840912 1.7012213 0.85559356
86.840912 2.6949751 0.93295246
86.840912 3.7262242 1.0050327
86.840912 4.7949734 1.0718346
86.840912 5.9012222 1.133358
86.840912 7.044971 1.1896033
86.840912 8.2262259 1.2405704
86.840912 9.4449749 1.2862589
86.840912 10.701223 1.3266692
86.840912 11.994972 1.3618011
86.840912 13.326221 1.3916547
86.840912 14.694976 1.4162301
86.840912 16.101225 1.435527
86.840912 17.544973 1.4495455
86.840912 19.026222 1.4582858
87.590904 -40.973778 -1.1530715
87.590904 -39.492527 -1.1664114
87.590904 -38.048779 -1.1777843
87.590904 -36.642529 -1.1871905
87.590904 -35.273777 -1.1946298
87.590904 -33.942528 -1.2001022
87.590904 -32.648777 -1.2036078
87.590904 -31.392529 -1.2051464
87.590904 -30.173779 -1.2047182
87.590904 -28.992527 -1.2023232
87.590904 -27.848778 -1.1979613
87.590904 -26.742527 -1.1916326
87.590904 -25.673777 -1.183337
87.590904 -24.642527 -1.1730745
87.590904 -23.648779 -1.1608452
87.590904 -22.692528 -1.146649
87.590904 -21.773777 -1.1304859
87.590904 -20.892527 -1.1123559
87.590904 -20.048777 -1.0922592
87.590904 -19.242527 -1.0701956
87.590904 -18.473778 -1.0461651
87.590904 -17.723776 -1.0190179
87.590904 -16.973778 -0.9876048
87.590904 -16.223778 -0.9519254
87.590904 -15.473777 -0.91197968
87.590904 -14.723778 -0.86776793
87.590904 -13.973777 -0.8192898
87.590904 -13.223778 -0.76654559
87.590904 -12.473778 -0.70953524
87.590904 -11.723777 -0.64825851
87.590904 -10.973778 -0.58271575
87.590904 -10.223777 -0.51290661
87.590904 -9.4737778 -0.43883145
87.590904 -8.7237778 -0.36049008
87.590904 -7.9737768 -0.27788234
87.590904 -7.2237778 -0.19100858
87.590904 -6.4737768 -0.099868417
87.590904 -5.7237773 -0.0044622733
87.590904 -4.9737782 0.09521006
87.590904 -4.2237768 0.19914885
87.590904 -3.4737778 0.30735359
87.590904 -2.7050285 0.41506582
87.590904 -1.8987755 0.51752734
87.590904 -1.0550262 0.61473727
87.590904 -0.17377691 0.70669597
87.590904 0.74497223 0.79340351
87.590904 1.7012213 0.87485993
87.590904 2.6949751 0.95106548
87.590904 3.7262242 1.0220195
87.590904 4.7949734 1.0877224
87.590904 5.9012222 1.1481742
87.590904 7.044971 1.2033746
87.590904 8.2262259 1.2533243
87.590904 9.4449749 1.2980224
87.590904 10.701223 1.3374695
87.590904 11.994972 1.3716652
87.590904 13.326221 1.40061
87.590904 14.694976 1.4243037
87.590904 16.101225 1.4427459
87.590904 17.544973 1.4559371
87.590904 19.026222 1.4638771
88.340904 -40.973778 -1.1220648
88.340904 -39.492527 -1.1348902
88.340904 -38.048779 -1.1457642
88.340904 -36.642529 -1.1546872
88.340904 -35.273777 -1.1616589
88.340904 -33.942528 -1.1666794
88.340904 -32.648777 -1.1697488
88.340904 -31.392529 -1.170867
88.340904 -30.173779 -1.1700339
88.340904 -28.992527 -1.1672497
88.340904 -27.848778 -1.1625143
88.340904 -26.742527 -1.1558278
88.340904 -25.673777 -1.1471901
88.340904 -24.642527 -1.1366011
88.340904 -23.648779 -1.124061
88.340904 -22.692528 -1.1095698
88.340904 -21.773777 -1.0931273
88.340904 -20.892527 -1.0747336
88.340904 -20.048777 -1.0543888
88.340904 -19.242527 -1.0320928
88.340904 -18.473778 -1.0078456
88.340904 -17.723776 -0.98052567
88.340904 -16.973778 -0.9490115
88.340904 -16.223778 -0.91330308
88.340904 -15.473777 -0.87340033
88.340904 -14.723778 -0.82930344
88.340904 -13.973777 -0.78101218
88.340904 -13.223778 -0.72852677
88.340904 -12.473778 -0.67184711
88.340904 -11.723777 -0.610973
88.340904 -10.973778 -0.54590487
88.340904 -10.223777 -0.47664225
88.340904 -9.4737778 -0.40318555
88.340904 -8.7237778 -0.32553461
88.340904 -7.9737768 -0.24368924
88.340904 -7.2237778 -0.15764979
88.340904 -6.4737768 -0.067415863
88.340904 -5.7237773 0.0270121
88.340904 -4.9737782 0.12563431
88.340904 -4.2237768 0.22845103
88.340904 -3.4737778 0.33546174
88.340904 -2.7050285 0.441948
88.340904 -1.8987755 0.54319149
88.340904 -1.0550262 0.63919127
88.340904 -0.17377691 0.72994787
88.340904 0.74497223 0.81546122
88.340904 1.7012213 0.89573133
88.340904 2.6949751 0.97075862
88.340904 3.7262242 1.0405424
88.340904 4.7949734 1.1050828
88.340904 5.9012222 1.1643801
88.340904 7.044971 1.2184341
88.340904 8.2262259 1.2672452
88.340904 9.4449749 1.3108127
88.340904 10.701223 1.3491372
88.340904 11.994972 1.3822184
88.340904 13.326221 1.4100562
88.340904 14.694976 1.4326512
88.340904 16.101225 1.4500027
88.340904 17.544973 1.4621109
88.340904 19.026222 1.468976
89.090904 -40.973778 -1.0896372
89.090904 -39.492527 -1.1019191
89.090904 -38.048779 -1.1122706
89.090904 -36.642529 -1.1206917
89.090904 -35.273777 -1.1271821
89.090904 -33.942528 -1.1317421
89.090904 -32.648777 -1.1343716
89.090904 -31.392529 -1.1350707
89.090904 -30.173779 -1.1338392
89.090904 -28.992527 -1.1306773
89.090904 -27.848778 -1.125585
89.090904 -26.742527 -1.118562
89.090904 -25.673777 -1.1096085
89.090904 -24.642527 -1.0987246
89.090904 -23.648779 -1.0859103
89.090904 -22.692528 -1.0711653
89.090904 -21.773777 -1.05449
89.090904 -20.892527 -1.0358841
89.090904 -20.048777 -1.0153477
89.090904 -19.242527 -0.99288088
89.090904 -18.473778 -0.96848357
89.090904 -17.723776 -0.94105554
89.090904 -16.973778 -0.90949684
89.090904 -16.223778 -0.87380737
89.090904 -15.473777 -0.83398706
89.090904 -14.723778 -0.79003602
89.090904 -13.973777 -0.74195421
89.090904 -13.223778 -0.68974167
89.090904 -12.473778 -0.63339841
89.090904 -11.723777 -0.57292426
89.090904 -10.973778 -0.50831944
89.090904 -10.223777 -0.43958375
89.090904 -9.4737778 -0.36671743
89.090904 -8.7237778 -0.28972039
89.090904 -7.9737768 -0.20859237
89.090904 -7.2237778 -0.12333378
89.090904 -6.4737768 -0.033944227
89.090904 -5.7237773 0.059575878
89.090904 -4.9737782 0.15722674
89.090904 -4.2237768 0.25900859
89.090904 -3.4737778 0.36492097
89.090904 -2.7050285 0.4702715
89.090904 -1.8987755 0.57036799
89.090904 -1.0550262 0.66520959
89.090904 -0.17377691 0.75479668
89.090904 0.74497223 0.83912927
89.090904 1.7012213 0.91820741
89.090904 2.6949751 0.99203146
89.090904 3.7262242 1.0606006
89.090904 4.7949734 1.1239153
89.090904 5.9012222 1.1819756
89.090904 7.044971 1.2347814
89.090904 8.2262259 1.2823329
89.090904 9.4449749 1.3246298
89.090904 10.701223 1.361672
89.090904 11.994972 1.39346
89.090904 13.326221 1.4199934
89.090904 14.694976 1.4412724
89.090904 16.101225 1.4572968
89.090904 17.544973 1.4680668
89.090904 19.026222 1.4735824
89.840904 -40.973778 -1.0557877
89.840904 -39.492527 -1.0674976
89.840904 -38.048779 -1.0773029
89.840904 -36.642529 -1.0852033
89.840904 -35.273777 -1.091199
89.840904 -33.942528 -1.0952898
89.840904 -32.648777 -1.097476
89.840904 -31.392529 -1.0977572
89.840904 -30.173779 -1.0961337
89.840904 -28.992527 -1.0926055
89.840904 -27.848778 -1.0871724
89.840904 -26.742527 -1.0798345
89.840904 -25.673777 -1.0705918
89.840904 -24.642527 -1.0594444
89.840904 -23.648779 -1.0463922
89.840904 -22.692528 -1.0314351
89.840904 -21.773777 -1.0145733
89.840904 -20.892527 -0.99580675
89.840904 -20.048777 -0.97513533
89.840904 -19.242527 -0.95255917
89.840904 -18.473778 -0.92807817
89.840904 -17.723776 -0.90060693
89.840904 -16.973778 -0.86905998
89.840904 -16.223778 -0.83343738
89.840904 -15.473777 -0.79373896
89.840904 -14.723778 -0.74996495
89.840904 -13.973777 -0.70211506
89.840904 -13.223778 -0.65018958
89.840904 -12.473778 -0.59418845
89.840904 -11.723777 -0.53411144
89.840904 -10.973778 -0.46995884
89.840904 -10.223777 -0.40173039
89.840904 -9.4737778 -0.32942638
89.840904 -8.7237778 -0.25304666
89.840904 -7.9737768 -0.17259106
89.840904 -7.2237778 -0.088059925
89.840904 -6.4737768 0.00054712483
89.840904 -5.7237773 0.093229674
89.840904 -4.9737782 0.18998793
89.840904 -4.2237768 0.29082215
89.840904 -3.4737778 0.39573181
89.840904 -2.7050285 0.5000369
89.840904 -1.8987755 0.5990575
89.840904 -1.0550262 0.69279265
89.840904 -0.17377691 0.78124291
89.840904 0.74497223 0.8644082
89.840904 1.7012213 0.94228858
89.840904 2.6949751 1.0148844
89.840904 3.7262242 1.0821949
89.840904 4.7949734 1.1442205
89.840904 5.9012222 1.2009611
89.840904 7.044971 1.2524168
89.840904 8.2262259 1.2985878
89.840904 9.4449749 1.3394736
89.840904 10.701223 1.3750745
89.840904 11.994972 1.4053905
89.840904 13.326221 1.4304215
89.840904 14.694976 1.4501677
89.840904 16.101225 1.4646288
89.840904 17.544973 1.4738051
89.840904 19.026222 1.4776964
90.590912 -40.973778 -1.0205168
90.590912 -39.492527 -1.0316261
90.590912 -38.048779 -1.0408614
90.590912 -36.642529 -1.0482227
90.590912 -35.273777 -1.0537097
90.590912 -33.942528 -1.0573229
90.590912 -32.648777 -1.0590619
90.590912 -31.392529 -1.0589268
90.590912 -30.173779 -1.0569177
90.590912 -28.992527 -1.0530344
90.590912 -27.848778 -1.0472771
90.590912 -26.742527 -1.0396457
90.590912 -25.673777 -1.0301403
90.590912 -24.642527 -1.0187607
90.590912 -23.648779 -1.0055071
90.590912 -22.692528 -0.99037945
90.590912 -21.773777 -0.97337765
90.590912 -20.892527 -0.95450181
90.590912 -20.048777 -0.93375188
90.590912 -19.242527 -0.91112792
90.590912 -18.473778 -0.88662988
90.590912 -17.723776 -0.85918015
90.590912 -16.973778 -0.82770139
90.590912 -16.223778 -0.79219359
90.590912 -15.473777 -0.75265652
90.590912 -14.723778 -0.70909047
90.590912 -13.973777 -0.66149521
90.590912 -13.223778 -0.60987091
90.590912 -12.473778 -0.55421758
90.590912 -11.723777 -0.49453494
90.590912 -10.973778 -0.43082336
90.590912 -10.223777 -0.36308253
90.590912 -9.4737778 -0.29131272
90.590912 -8.7237778 -0.21551384
90.590912 -7.9737768 -0.13568565
90.590912 -7.2237778 -0.051828541
90.590912 -6.4737768 0.036057878
90.590912 -5.7237773 0.1279732
90.590912 -4.9737782 0.2239176
90.590912 -4.2237768 0.32389137
90.590912 -3.4737778 0.427894
90.590912 -2.7050285 0.53124386
90.590912 -1.8987755 0.62925965
90.590912 -1.0550262 0.72194028
90.590912 -0.17377691 0.80928636
90.590912 0.74497223 0.89129782
90.590912 1.7012213 0.96797466
90.590912 2.6949751 1.0393173
90.590912 3.7262242 1.1053249
90.590912 4.7949734 1.165998
90.590912 5.9012222 1.2213364
90.590912 7.044971 1.2713403
90.590912 8.2262259 1.3160096
90.590912 9.4449749 1.3553443
90.590912 10.701223 1.3893443
90.590912 11.994972 1.4180098
90.590912 13.326221 1.4413406
90.590912 14.694976 1.4593369
90.590912 16.101225 1.4719985
90.590912 17.544973 1.4793255
90.590912 19.026222 1.4813179
91.340904 -40.973778 -0.98382473
91.340904 -39.492527 -0.99430478
91.340904 -38.048779 -1.0029465
91.340904 -36.642529 -1.0097498
91.340904 -35.273777 -1.0147148
91.340904 -33.942528 -1.0178415
91.340904 -32.648777 -1.0191298
91.340904 -31.392529 -1.0185797
91.340904 -30.173779 -1.0161914
91.340904 -28.992527 -1.0119646
91.340904 -27.848778 -1.0058994
91.340904 -26.742527 -0.99799597
91.340904 -25.673777 -0.98825413
91.340904 -24.642527 -0.97667396
91.340904 -23.648779 -0.96325547
91.340904 -22.692528 -0.94799858
91.340904 -21.773777 -0.93090338
91.340904 -20.892527 -0.91196978
91.340904 -20.048777 -0.89119786
91.340904 -19.242527 -0.86858761
91.340904 -18.473778 -0.84413898
91.340904 -17.723776 -0.81677568
91.340904 -16.973778 -0.78542143
91.340904 -16.223778 -0.75007629
91.340904 -15.473777 -0.71074009
91.340904 -14.723778 -0.66741306
91.340904 -13.973777 -0.62009495
91.340904 -13.223778 -0.56878603
91.340904 -12.473778 -0.51348615
91.340904 -11.723777 -0.45419517
91.340904 -10.973778 -0.3909134
91.340904 -10.223777 -0.32364053
91.340904 -9.4737778 -0.25237685
91.340904 -8.7237778 -0.17712224
91.340904 -7.9737768 -0.097876489
91.340904 -7.2237778 -0.014639984
91.340904 -6.4737768 0.072587676
91.340904 -5.7237773 0.16380608
91.340904 -4.9737782 0.25901544
91.340904 -4.2237768 0.35821596
91.340904 -3.4737778 0.46140718
91.340904 -2.7050285 0.56389219
91.340904 -1.8987755 0.66097414
91.340904 -1.0550262 0.75265211
91.340904 -0.17377691 0.83892667
91.340904 0.74497223 0.91979772
91.340904 1.7012213 0.99526531
91.340904 2.6949751 1.0653298
91.340904 3.7262242 1.1299903
91.340904 4.7949734 1.1892475
91.340904 5.9012222 1.2431012
91.340904 7.044971 1.2915514
91.340904 8.2262259 1.3345983
91.340904 9.4449749 1.3722415
91.340904 10.701223 1.4044813
91.340904 11.994972 1.4313176
91.340904 13.326221 1.4527504
91.340904 14.694976 1.4687798
91.340904 16.101225 1.4794056
91.340904 17.544973 1.4846281
91.340904 19.026222 1.484447
92.090904 -40.973778 -0.94601101
92.090904 -39.492527 -0.95587748
92.090904 -38.048779 -0.96394175
92.090904 -36.642529 -0.97020382
92.090904 -35.273777 -0.97466362
92.090904 -33.942528 -0.97732121
92.090904 -32.648777 -0.97817659
92.090904 -31.392529 -0.97722977
92.090904 -30.173779 -0.97448069
92.090904 -28.992527 -0.9699294
92.090904 -27.848778 -0.9635759
92.090904 -26.742527 -0.95542014
92.090904 -25.673777 -0.94546217
92.090904 -24.642527 -0.93370199
92.090904 -23.648779 -0.92013961
92.090904 -22.692528 -0.90477496
92.090904 -21.773777 -0.88760811
92.090904 -20.892527 -0.86863899
92.090904 -20.048777 -0.84786773
92.090904 -19.242527 -0.8252942
92.090904 -18.473778 -0.80091846
92.090904 -17.723776 -0.77366358
92.090904 -16.973778 -0.74245286
92.090904 -16.223778 -0.70728618
92.090904 -15.473777 -0.66816348
92.090904 -14.723778 -0.62508494
92.090904 -13.973777 -0.57805037
92.090904 -13.223778 -0.52705997
92.090904 -12.473778 -0.47211364
92.090904 -11.723777 -0.41321126
92.090904 -10.973778 -0.35035303
92.090904 -10.223777 -0.28353876
92.090904 -9.4737778 -0.21276869
92.090904 -8.7237778 -0.13804269
92.090904 -7.9737768 -0.059360575
92.090904 -7.2237778 0.023277286
92.090904 -6.4737768 0.10987129
92.090904 -5.7237773 0.20042102
92.090904 -4.9737782 0.29492667
92.090904 -4.2237768 0.39338851
92.090904 -3.4737778 0.49580604
92.090904 -2.7050285 0.59746039
92.090904 -1.8987755 0.6936329
92.090904 -1.0550262 0.78432262
92.090904 -0.17377691 0.86953008
92.090904 0.74497223 0.94925523
92.090904 1.7012213 1.0234981
92.090904 2.6949751 1.092259
92.090904 3.7262242 1.1555372
92.090904 4.7949734 1.2133332
92.090904 5.9012222 1.2656469
92.090904 7.044971 1.3124783
92.090904 8.2262259 1.3538276
92.090904 9.4449749 1.3896943
92.090904 10.701223 1.4200789
92.090904 11.994972 1.4449811
92.090904 13.326221 1.464401
92.090904 14.694976 1.4783387
92.090904 16.101225 1.486794
