# .PCD v0.7 - Point Cloud Data file format
VERSION 0.7
FIELDS x y z
SIZE 4 4 4
TYPE F F F
COUNT 1 1 1
WIDTH 1530
HEIGHT 1
VIEWPOINT 0 0 0 1 0 0 0
POINTS 1530
DATA ascii
21.570271 -25.225378 -1.7847842
21.570271 -24.475378 -1.786569
21.570271 -23.72538 -1.7884021
21.570271 -22.97538 -1.7902837
21.570271 -22.22538 -1.7922137
21.570271 -21.475378 -1.7941921
21.570271 -20.725378 -1.7962188
21.570271 -19.97538 -1.7982939
21.570271 -19.22538 -1.8004175
21.570271 -18.47538 -1.8025895
21.570271 -17.725378 -1.8048099
21.570271 -16.975378 -1.8070787
21.570271 -16.22538 -1.8093959
21.570271 -15.47538 -1.8117615
21.570271 -14.706631 -1.8141655
21.570271 -13.900377 -1.8165978
21.570271 -13.056628 -1.8190585
21.570271 -12.175379 -1.8215475
21.570271 -11.25663 -1.824065
21.570271 -10.300381 -1.8266107
21.570271 -9.3066273 -1.8291849
21.570271 -8.2753782 -1.8317873
21.570271 -7.2066288 -1.8344182
21.570271 -6.1003799 -1.8370775
21.570271 -4.9566312 -1.8397651
21.570271 -3.7753766 -1.8424809
21.570271 -2.5566275 -1.8452252
21.570271 -1.3003787 -1.8479979
21.570271 -0.0066299438 -1.850799
21.570271 1.3246188 -1.8536283
21.570271 2.6933739 -1.856486
21.570271 4.0996227 -1.8593721
21.570271 5.5433717 -1.8622866
21.570271 7.0246201 -1.8652294
22.320272 -67.97538 -1.8116046
22.320272 -66.494133 -1.808579
22.320272 -65.050377 -1.8056688
22.320272 -63.644131 -1.8028743
22.320272 -62.275379 -1.8001953
22.320272 -60.94413 -1.797632
22.320272 -59.650379 -1.7951843
22.320272 -58.394131 -1.7928522
22.320272 -57.175381 -1.7906356
22.320272 -55.994129 -1.7885345
22.320272 -54.85038 -1.7865492
22.320272 -53.744129 -1.7846794
22.320272 -52.675381 -1.7829251
22.320272 -51.644131 -1.7812866
22.320272 -50.650379 -1.7797636
22.320272 -49.69413 -1.7783561
22.320272 -48.775379 -1.7770642
22.320272 -47.894131 -1.775888
22.320272 -47.050381 -1.7748274
22.320272 -46.244129 -1.7738823
22.320272 -45.47538 -1.7730527
22.320272 -44.72538 -1.7723349
22.320272 -43.97538 -1.7717248
22.320272 -43.22538 -1.7712225
22.320272 -42.47538 -1.7708278
22.320272 -41.72538 -1.770541
22.320272 -40.97538 -1.7703618
22.320272 -40.22538 -1.7702904
22.320272 -39.47538 -1.7703266
22.320272 -38.72538 -1.7704706
22.320272 -37.97538 -1.7707224
22.320272 -37.22538 -1.7710819
22.320272 -36.47538 -1.7715491
22.320272 -35.72538 -1.7721241
22.320272 -34.97538 -1.7728068
22.320272 -34.22538 -1.7735972
22.320272 -33.47538 -1.7744954
22.320272 -32.72538 -1.7755013
22.320272 -31.97538 -1.7766149
22.320272 -31.22538 -1.7778362
22.320272 -30.47538 -1.7791653
22.320272 -29.72538 -1.7805716
22.320272 -28.975378 -1.7820245
22.320272 -28.225378 -1.7835242
22.320272 -27.47538 -1.7850704
22.320272 -26.72538 -1.7866633
22.320272 -25.97538 -1.7883029
22.320272 -25.225378 -1.7899892
22.320272 -24.475378 -1.7917222
22.320272 -23.72538 -1.7935017
22.320272 -22.97538 -1.795328
22.320272 -22.22538 -1.797201
22.320272 -21.475378 -1.7991207
22.320272 -20.725378 -1.8010869
22.320272 -19.97538 -1.8030999
22.320272 -19.22538 -1.8051594
22.320272 -18.47538 -1.8072656
22.320272 -17.725378 -1.8094187
22.320272 -16.975378 -1.8116182
22.320272 -16.22538 -1.8138645
22.320272 -15.47538 -1.8161575
22.320272 -14.706631 -1.8184868
22.320272 -13.900377 -1.8208425
22.320272 -13.056628 -1.8232244
22.320272 -12.175379 -1.8256326
22.320272 -11.25663 -1.8280669
22.320272 -10.300381 -1.8305275
22.320272 -9.3066273 -1.8330145
22.320272 -8.2753782 -1.8355277
22.320272 -7.2066288 -1.8380671
22.320272 -6.1003799 -1.8406328
22.320272 -4.9566312 -1.8432246
22.320272 -3.7753766 -1.8458428
22.320272 -2.5566275 -1.8484873
22.320272 -1.3003787 -1.8511579
22.320272 -0.0066299438 -1.8538549
22.320272 1.3246188 -1.856578
22.320272 2.6933739 -1.8593274
22.320272 4.0996227 -1.8621031
22.320272 5.5433717 -1.8649051
22.320272 7.0246201 -1.8677332
23.070274 -67.97538 -1.8148773
23.070274 -66.494133 -1.811973
23.070274 -65.050377 -1.8091816
23.070274 -63.644131 -1.8065033
23.070274 -62.275379 -1.8039378
23.070274 -60.94413 -1.8014854
23.070274 -59.650379 -1.7991458
23.070274 -58.394131 -1.7969193
23.070274 -57.175381 -1.7948058
23.070274 -55.994129 -1.7928051
23.070274 -54.85038 -1.7909174
23.070274 -53.744129 -1.7891427
23.070274 -52.675381 -1.787481
23.070274 -51.644131 -1.7859321
23.070274 -50.650379 -1.7844963
23.070274 -49.69413 -1.7831733
23.070274 -48.775379 -1.7819635
23.070274 -47.894131 -1.7808665
23.070274 -47.050381 -1.7798824
23.070274 -46.244129 -1.7790114
23.070274 -45.47538 -1.7782533
23.070274 -44.72538 -1.7776028
23.070274 -43.97538 -1.7770544
23.070274 -43.22538 -1.7766082
23.070274 -42.47538 -1.7762642
23.070274 -41.72538 -1.7760224
23.070274 -40.97538 -1.7758828
23.070274 -40.22538 -1.7758454
23.070274 -39.47538 -1.7759101
23.070274 -38.72538 -1.7760772
23.070274 -37.97538 -1.7763462
23.070274 -37.22538 -1.7767175
23.070274 -36.47538 -1.777191
23.070274 -35.72538 -1.7777667
23.070274 -34.97538 -1.7784446
23.070274 -34.22538 -1.7792246
23.070274 -33.47538 -1.7801069
23.070274 -32.72538 -1.7810913
23.070274 -31.97538 -1.7821779
23.070274 -31.22538 -1.7833667
23.070274 -30.47538 -1.7846577
23.070274 -29.72538 -1.7860223
23.070274 -28.975378 -1.787432
23.070274 -28.225378 -1.7888868
23.070274 -27.47538 -1.7903866
23.070274 -26.72538 -1.7919315
23.070274 -25.97538 -1.7935215
23.070274 -25.225378 -1.7951566
23.070274 -24.475378 -1.7968367
23.070274 -23.72538 -1.798562
23.070274 -22.97538 -1.8003323
23.070274 -22.22538 -1.8021477
23.070274 -21.475378 -1.8040082
23.070274 -20.725378 -1.8059138
23.070274 -19.97538 -1.8078644
23.070274 -19.22538 -1.8098602
23.070274 -18.47538 -1.811901
23.070274 -17.725378 -1.8139869
23.070274 -16.975378 -1.8161179
23.070274 -16.22538 -1.8182939
23.070274 -15.47538 -1.820515
23.070274 -14.706631 -1.8227705
23.070274 -13.900377 -1.8250498
23.070274 -13.056628 -1.8273526
23.070274 -12.175379 -1.8296793
23.070274 -11.25663 -1.8320296
23.070274 -10.300381 -1.8344036
23.070274 -9.3066273 -1.8368014
23.070274 -8.2753782 -1.8392228
23.070274 -7.2066288 -1.8416679
23.070274 -6.1003799 -1.8441367
23.070274 -4.9566312 -1.8466293
23.070274 -3.7753766 -1.8491455
23.070274 -2.5566275 -1.8516855
23.070274 -1.3003787 -1.8542491
23.070274 -0.0066299438 -1.8568366
23.070274 1.3246188 -1.8594476
23.070274 2.6933739 -1.8620824
23.070274 4.0996227 -1.8647408
23.070274 5.5433717 -1.8674229
23.070274 7.0246201 -1.8701289
23.820263 -67.97538 -1.8181114
23.820263 -66.494133 -1.8153296
23.820263 -65.050377 -1.8126581
23.820263 -63.644131 -1.8100969
23.820263 -62.275379 -1.807646
23.820263 -60.94413 -1.8053055
23.820263 -59.650379 -1.8030753
23.820263 -58.394131 -1.8009555
23.820263 -57.175381 -1.7989459
23.820263 -55.994129 -1.7970467
23.820263 -54.85038 -1.7952578
23.820263 -53.744129 -1.7935792
23.820263 -52.675381 -1.792011
23.820263 -51.644131 -1.7905531
23.820263 -50.650379 -1.7892056
23.820263 -49.69413 -1.7879683
23.820263 -48.775379 -1.7868414
23.820263 -47.894131 -1.7858248
23.820263 -47.050381 -1.7849185
23.820263 -46.244129 -1.7841226
23.820263 -45.47538 -1.7834369
23.820263 -44.72538 -1.7828547
23.820263 -43.97538 -1.782369
23.820263 -43.22538 -1.7819797
23.820263 -42.47538 -1.7816869
23.820263 -41.72538 -1.7814907
23.820263 -40.97538 -1.7813908
23.820263 -40.22538 -1.7813874
23.820263 -39.47538 -1.7814806
23.820263 -38.72538 -1.7816702
23.820263 -37.97538 -1.7819563
23.820263 -37.22538 -1.7823389
23.820263 -36.47538 -1.7828178
23.820263 -35.72538 -1.7833934
23.820263 -34.97538 -1.7840654
23.820263 -34.22538 -1.7848338
23.820263 -33.47538 -1.7856988
23.820263 -32.72538 -1.7866602
23.820263 -31.97538 -1.7877181
23.820263 -31.22538 -1.7888725
23.820263 -30.47538 -1.7901233
23.820263 -29.72538 -1.7914443
23.820263 -28.975378 -1.7928088
23.820263 -28.225378 -1.794217
23.820263 -27.47538 -1.7956688
23.820263 -26.72538 -1.7971643
23.820263 -25.97538 -1.7987036
23.820263 -25.225378 -1.8002863
23.820263 -24.475378 -1.8019128
23.820263 -23.72538 -1.8035828
23.820263 -22.97538 -1.8052965
23.820263 -22.22538 -1.8070538
23.820263 -21.475378 -1.8088548
23.820263 -20.725378 -1.8106995
23.820263 -19.97538 -1.8125879
23.820263 -19.22538 -1.8145198
23.820263 -18.47538 -1.8164953
23.820263 -17.725378 -1.8185146
23.820263 -16.975378 -1.8205774
23.820263 -16.22538 -1.8226839
23.820263 -15.47538 -1.8248341
23.820263 -14.706631 -1.8270164
23.820263 -13.900377 -1.8292195
23.820263 -13.056628 -1.8314432
23.820263 -12.175379 -1.8336877
23.820263 -11.25663 -1.8359529
23.820263 -10.300381 -1.8382387
23.820263 -9.3066273 -1.8405453
23.820263 -8.2753782 -1.8428726
23.820263 -7.2066288 -1.8452207
23.820263 -6.1003799 -1.8475894
23.820263 -4.9566312 -1.8499789
23.820263 -3.7753766 -1.8523891
23.820263 -2.5566275 -1.8548199
23.820263 -1.3003787 -1.8572716
23.820263 -0.0066299438 -1.8597438
23.820263 1.3246188 -1.8622369
23.820263 2.6933739 -1.8647505
23.820263 4.0996227 -1.867285
23.820263 5.5433717 -1.8698401
23.820263 7.0246201 -1.872416
24.570267 -67.97538 -1.8213072
24.570267 -66.494133 -1.8186489
24.570267 -65.050377 -1.8160983
24.570267 -63.644131 -1.8136554
24.570267 -62.275379 -1.8113202
24.570267 -60.94413 -1.8090926
24.570267 -59.650379 -1.8069729
24.570267 -58.394131 -1.8049607
24.570267 -57.175381 -1.8030564
24.570267 -55.994129 -1.8012596
24.570267 -54.85038 -1.7995707
24.570267 -53.744129 -1.7979894
24.570267 -52.675381 -1.7965157
24.570267 -51.644131 -1.7951498
24.570267 -50.650379 -1.7938915
24.570267 -49.69413 -1.7927411
24.570267 -48.775379 -1.7916982
24.570267 -47.894131 -1.7907631
24.570267 -47.050381 -1.7899357
24.570267 -46.244129 -1.7892159
24.570267 -45.47538 -1.7886039
24.570267 -44.72538 -1.7880911
24.570267 -43.97538 -1.7876688
24.570267 -43.22538 -1.7873372
24.570267 -42.47538 -1.7870961
24.570267 -41.72538 -1.7869457
24.570267 -40.97538 -1.7868859
24.570267 -40.22538 -1.7869166
24.570267 -39.47538 -1.7870381
24.570267 -38.72538 -1.78725
24.570267 -37.97538 -1.7875527
24.570267 -37.22538 -1.7879459
24.570267 -36.47538 -1.7884297
24.570267 -35.72538 -1.7890042
24.570267 -34.97538 -1.7896693
24.570267 -34.22538 -1.7904249
24.570267 -33.47538 -1.7912712
24.570267 -32.72538 -1.7922081
24.570267 -31.97538 -1.7932357
24.570267 -31.22538 -1.7943537
24.570267 -30.47538 -1.7955625
24.570267 -29.72538 -1.7968377
24.570267 -28.975378 -1.7981552
24.570267 -28.225378 -1.7995151
24.570267 -27.47538 -1.8009174
24.570267 -26.72538 -1.8023621
24.570267 -25.97538 -1.8038491
24.570267 -25.225378 -1.8053784
24.570267 -24.475378 -1.8069502
24.570267 -23.72538 -1.8085643
24.570267 -22.97538 -1.8102207
24.570267 -22.22538 -1.8119195
24.570267 -21.475378 -1.8136606
24.570267 -20.725378 -1.8154441
24.570267 -19.97538 -1.81727
24.570267 -19.22538 -1.8191383
24.570267 -18.47538 -1.8210489
24.570267 -17.725378 -1.8230019
24.570267 -16.975378 -1.8249971
24.570267 -16.22538 -1.8270348
24.570267 -15.47538 -1.8291148
24.570267 -14.706631 -1.8312247
24.570267 -13.900377 -1.8333519
24.570267 -13.056628 -1.8354962
24.570267 -12.175379 -1.8376579
24.570267 -11.25663 -1.8398368
24.570267 -10.300381 -1.842033
24.570267 -9.3066273 -1.8442466
24.570267 -8.2753782 -1.8464774
24.570267 -7.2066288 -1.8487254
24.570267 -6.1003799 -1.8509909
24.570267 -4.9566312 -1.8532735
24.570267 -3.7753766 -1.8555734
24.570267 -2.5566275 -1.8578906
24.570267 -1.3003787 -1.8602251
24.570267 -0.0066299438 -1.8625768
24.570267 1.3246188 -1.8649459
24.570267 2.6933739 -1.8673322
24.570267 4.0996227 -1.8697357
24.570267 5.5433717 -1.8721566
24.570267 7.0246201 -1.8745948
25.33902 -67.97538 -1.8245046
25.33902 -66.494133 -1.8219687
25.33902 -65.050377 -1.8195379
25.33902 -63.644131 -1.817212
25.33902 -62.275379 -1.8149912
25.33902 -60.94413 -1.8128755
25.33902 -59.650379 -1.8108648
25.33902 -58.394131 -1.8089591
25.33902 -57.175381 -1.8071585
25.33902 -55.994129 -1.8054628
25.33902 -54.85038 -1.8038723
25.33902 -53.744129 -1.8023868
25.33902 -52.675381 -1.8010063
25.33902 -51.644131 -1.7997309
25.33902 -50.650379 -1.7985605
25.33902 -49.69413 -1.7974951
25.33902 -48.775379 -1.7965348
25.33902 -47.894131 -1.7956795
25.33902 -47.050381 -1.7949291
25.33902 -46.244129 -1.794284
25.33902 -45.47538 -1.7937437
25.33902 -44.72538 -1.7932985
25.33902 -43.97538 -1.792938
25.33902 -43.22538 -1.7926623
25.33902 -42.47538 -1.7924714
25.33902 -41.72538 -1.7923653
25.33902 -40.97538 -1.7923439
25.33902 -40.22538 -1.7924074
25.33902 -39.47538 -1.7925556
25.33902 -38.72538 -1.7927886
25.33902 -37.97538 -1.7931064
25.33902 -37.22538 -1.793509
25.33902 -36.47538 -1.7939963
25.33902 -35.72538 -1.7945685
25.33902 -34.97538 -1.7952255
25.33902 -34.22538 -1.7959672
25.33902 -33.47538 -1.7967937
25.33902 -32.72538 -1.7977051
25.33902 -31.97538 -1.798701
25.33902 -31.22538 -1.7997819
25.33902 -30.47538 -1.8009477
25.33902 -29.72538 -1.8021762
25.33902 -28.975378 -1.8034459
25.33902 -28.225378 -1.8047569
25.33902 -27.47538 -1.8061088
25.33902 -26.72538 -1.8075019
25.33902 -25.97538 -1.8089361
25.33902 -25.225378 -1.8104115
25.33902 -24.475378 -1.8119279
25.33902 -23.72538 -1.8134855
25.33902 -22.97538 -1.8150841
25.33902 -22.22538 -1.8167239
25.33902 -21.475378 -1.8184049
25.33902 -20.725378 -1.8201269
25.33902 -19.97538 -1.8218901
25.33902 -19.22538 -1.8236943
25.33902 -18.47538 -1.8255398
25.33902 -17.725378 -1.8274263
25.33902 -16.975378 -1.8293539
25.33902 -16.22538 -1.8313228
25.33902 -15.47538 -1.8333327
25.33902 -14.706631 -1.8353699
25.33902 -13.900377 -1.8374211
25.33902 -13.056628 -1.8394859
25.33902 -12.175379 -1.8415644
25.33902 -11.25663 -1.8436568
25.33902 -10.300381 -1.8457628
25.33902 -9.3066273 -1.8478826
25.33902 -8.2753782 -1.8500162
25.33902 -7.2066288 -1.8521636
25.33902 -6.1003799 -1.8543247
25.33902 -4.9566312 -1.8564994
25.33902 -3.7753766 -1.8586881
25.33902 -2.5566275 -1.8608904
25.33902 -1.3003787 -1.8631065
25.33902 -0.0066299438 -1.8653363
25.33902 1.3246188 -1.8675799
25.33902 2.6933739 -1.8698373
25.33902 4.0996227 -1.8721083
25.33902 5.5433717 -1.8743931
25.33902 7.0246201 -1.8766917
26.145273 -67.97538 -1.8277434
26.145273 -66.494133 -1.8253267
26.145273 -65.050377 -1.8230121
26.145273 -63.644131 -1.8208001
26.145273 -62.275379 -1.8186902
26.145273 -60.94413 -1.8166826
26.145273 -59.650379 -1.8147774
26.145273 -58.394131 -1.8129745
26.145273 -57.175381 -1.8112738
26.145273 -55.994129 -1.8096755
26.145273 -54.85038 -1.8081795
26.145273 -53.744129 -1.8067858
26.145273 -52.675381 -1.8054943
26.145273 -51.644131 -1.8043053
26.145273 -50.650379 -1.8032185
26.145273 -49.69413 -1.8022339
26.145273 -48.775379 -1.8013518
26.145273 -47.894131 -1.8005719
26.145273 -47.050381 -1.7998943
26.145273 -46.244129 -1.799319
26.145273 -45.47538 -1.7988461
26.145273 -44.72538 -1.7984638
26.145273 -43.97538 -1.7981609
26.145273 -43.22538 -1.797937
26.145273 -42.47538 -1.7977926
26.145273 -41.72538 -1.7977271
26.145273 -40.97538 -1.7977409
26.145273 -40.22538 -1.797834
26.145273 -39.47538 -1.7980063
26.145273 -38.72538 -1.7982577
26.145273 -37.97538 -1.7985884
26.145273 -37.22538 -1.7989982
26.145273 -36.47538 -1.7994874
26.145273 -35.72538 -1.8000556
26.145273 -34.97538 -1.8007032
26.145273 -34.22538 -1.8014299
26.145273 -33.47538 -1.8022357
26.145273 -32.72538 -1.8031209
26.145273 -31.97538 -1.8040853
26.145273 -31.22538 -1.8051288
26.145273 -30.47538 -1.8062515
26.145273 -29.72538 -1.8074338
26.145273 -28.975378 -1.8086559
26.145273 -28.225378 -1.8099178
26.145273 -27.47538 -1.8112196
26.145273 -26.72538 -1.8125612
26.145273 -25.97538 -1.8139424
26.145273 -25.225378 -1.8153636
26.145273 -24.475378 -1.8168247
26.145273 -23.72538 -1.8183255
26.145273 -22.97538 -1.8198662
26.145273 -22.22538 -1.8214467
26.145273 -21.475378 -1.8230669
26.145273 -20.725378 -1.8247272
26.145273 -19.97538 -1.8264271
26.145273 -19.22538 -1.8281668
26.145273 -18.47538 -1.8299464
26.145273 -17.725378 -1.8317659
26.145273 -16.975378 -1.8336251
26.145273 -16.22538 -1.8355241
26.145273 -15.47538 -1.837463
26.145273 -14.706631 -1.839427
26.145273 -13.900377 -1.8414015
26.145273 -13.056628 -1.8433865
26.145273 -12.175379 -1.845382
26.145273 -11.25663 -1.8473878
26.145273 -10.300381 -1.8494042
26.145273 -9.3066273 -1.8514311
26.145273 -8.2753782 -1.8534684
26.145273 -7.2066288 -1.8555162
26.145273 -6.1003799 -1.8575745
26.145273 -4.9566312 -1.8596432
26.145273 -3.7753766 -1.8617225
26.145273 -2.5566275 -1.8638122
26.145273 -1.3003787 -1.8659123
26.145273 -0.0066299438 -1.8680229
26.145273 1.3246188 -1.8701441
26.145273 2.6933739 -1.8722757
26.145273 4.0996227 -1.8744178
26.145273 5.5433717 -1.8765702
26.145273 7.0246201 -1.8787333
26.989027 -67.97538 -1.8310237
26.989027 -66.494133 -1.8287227
26.989027 -65.050377 -1.8265213
26.989027 -63.644131 -1.8244194
26.989027 -62.275379 -1.822417
26.989027 -60.94413 -1.8205141
26.989027 -59.650379 -1.8187107
26.989027 -58.394131 -1.8170068
26.989027 -57.175381 -1.8154024
26.989027 -55.994129 -1.8138975
26.989027 -54.85038 -1.8124921
26.989027 -53.744129 -1.8111862
26.989027 -52.675381 -1.8099798
26.989027 -51.644131 -1.8088729
26.989027 -50.650379 -1.8078656
26.989027 -49.69413 -1.8069577
26.989027 -48.775379 -1.8061494
26.989027 -47.894131 -1.8054404
26.989027 -47.050381 -1.8048311
26.989027 -46.244129 -1.8043212
26.989027 -45.47538 -1.8039109
26.989027 -44.72538 -1.8035872
26.989027 -43.97538 -1.8033373
26.989027 -43.22538 -1.8031615
26.989027 -42.47538 -1.8030595
26.989027 -41.72538 -1.8030313
26.989027 -40.97538 -1.803077
26.989027 -40.22538 -1.8031965
26.989027 -39.47538 -1.80339
26.989027 -38.72538 -1.8036574
26.989027 -37.97538 -1.8039986
26.989027 -37.22538 -1.8044138
26.989027 -36.47538 -1.8049027
26.989027 -35.72538 -1.8054656
26.989027 -34.97538 -1.8061023
26.989027 -34.22538 -1.806813
26.989027 -33.47538 -1.8075974
26.989027 -32.72538 -1.8084558
26.989027 -31.97538 -1.809388
26.989027 -31.22538 -1.8103942
26.989027 -30.47538 -1.8114742
26.989027 -29.72538 -1.8126104
26.989027 -28.975378 -1.8137851
26.989027 -28.225378 -1.8149981
26.989027 -27.47538 -1.8162497
26.989027 -26.72538 -1.8175398
26.989027 -25.97538 -1.8188683
26.989027 -25.225378 -1.8202353
26.989027 -24.475378 -1.8216406
26.989027 -23.72538 -1.8230845
26.989027 -22.97538 -1.8245668
26.989027 -22.22538 -1.8260877
26.989027 -21.475378 -1.827647
26.989027 -20.725378 -1.8292447
26.989027 -19.97538 -1.8308809
26.989027 -19.22538 -1.8325557
26.989027 -18.47538 -1.8342687
26.989027 -17.725378 -1.8360204
26.989027 -16.975378 -1.8378104
26.989027 -16.22538 -1.8396389
26.989027 -15.47538 -1.8415059
26.989027 -14.706631 -1.8433958
26.989027 -13.900377 -1.8452932
26.989027 -13.056628 -1.847198
26.989027 -12.175379 -1.8491104
26.989027 -11.25663 -1.85103
26.989027 -10.300381 -1.8529572
26.989027 -9.3066273 -1.8548919
26.989027 -8.2753782 -1.8568339
26.989027 -7.2066288 -1.8587834
26.989027 -6.1003799 -1.8607403
26.989027 -4.9566312 -1.8627048
26.989027 -3.7753766 -1.8646766
26.989027 -2.5566275 -1.8666559
26.989027 -1.3003787 -1.8686427
26.989027 -0.0066299438 -1.8706368
26.989027 1.3246188 -1.8726385
26.989027 2.6933739 -1.8746475
26.989027 4.0996227 -1.876664
26.989027 5.5433717 -1.878688
26.989027 7.0246201 -1.8807194
27.870264 -67.97538 -1.8343453
27.870264 -66.494133 -1.832157
27.870264 -65.050377 -1.8300653
27.870264 -63.644131 -1.8280702
27.870264 -62.275379 -1.8261718
27.870264 -60.94413 -1.8243699
27.870264 -59.650379 -1.8226647
27.870264 -58.394131 -1.8210561
27.870264 -57.175381 -1.8195442
27.870264 -55.994129 -1.8181288
27.870264 -54.85038 -1.8168101
27.870264 -53.744129 -1.8155881
27.870264 -52.675381 -1.8144627
27.870264 -51.644131 -1.8134339
27.870264 -50.650379 -1.8125018
27.870264 -49.69413 -1.8116663
27.870264 -48.775379 -1.8109273
27.870264 -47.894131 -1.8102851
27.870264 -47.050381 -1.8097394
27.870264 -46.244129 -1.8092904
27.870264 -45.47538 -1.808938
27.870264 -44.72538 -1.8086684
27.870264 -43.97538 -1.8084675
27.870264 -43.22538 -1.8083354
27.870264 -42.47538 -1.8082721
27.870264 -41.72538 -1.8082776
27.870264 -40.97538 -1.8083519
27.870264 -40.22538 -1.808495
27.870264 -39.47538 -1.8087069
27.870264 -38.72538 -1.8089876
27.870264 -37.97538 -1.809337
27.870264 -37.22538 -1.8097553
27.870264 -36.47538 -1.8102424
27.870264 -35.72538 -1.8107983
27.870264 -34.97538 -1.8114229
27.870264 -34.22538 -1.8121164
27.870264 -33.47538 -1.8128786
27.870264 -32.72538 -1.8137096
27.870264 -31.97538 -1.8146095
27.870264 -31.22538 -1.8155781
27.870264 -30.47538 -1.8166156
27.870264 -29.72538 -1.8177059
27.870264 -28.975378 -1.8188332
27.870264 -28.225378 -1.8199977
27.870264 -27.47538 -1.8211992
27.870264 -26.72538 -1.8224378
27.870264 -25.97538 -1.8237133
27.870264 -25.225378 -1.8250259
27.870264 -24.475378 -1.8263756
27.870264 -23.72538 -1.8277624
27.870264 -22.97538 -1.8291861
27.870264 -22.22538 -1.8306469
27.870264 -21.475378 -1.8321447
27.870264 -20.725378 -1.8336797
27.870264 -19.97538 -1.8352516
27.870264 -19.22538 -1.8368605
27.870264 -18.47538 -1.8385066
27.870264 -17.725378 -1.8401897
27.870264 -16.975378 -1.8419099
27.870264 -16.22538 -1.843667
27.870264 -15.47538 -1.8454612
27.870264 -14.706631 -1.8472763
27.870264 -13.900377 -1.8490961
27.870264 -13.056628 -1.8509206
27.870264 -12.175379 -1.8527496
27.870264 -11.25663 -1.8545834
27.870264 -10.300381 -1.8564218
27.870264 -9.3066273 -1.8582649
27.870264 -8.2753782 -1.8601127
27.870264 -7.2066288 -1.8619651
27.870264 -6.1003799 -1.8638222
27.870264 -4.9566312 -1.865684
27.870264 -3.7753766 -1.8675505
27.870264 -2.5566275 -1.8694216
27.870264 -1.3003787 -1.8712974
27.870264 -0.0066299438 -1.8731778
27.870264 1.3246188 -1.8750629
27.870264 2.6933739 -1.8769528
27.870264 4.0996227 -1.8788472
27.870264 5.5433717 -1.8807464
27.870264 7.0246201 -1.8826501
28.789017 -67.97538 -1.8377085
28.789017 -66.494133 -1.8356295
28.789017 -65.050377 -1.833644
28.789017 -63.644131 -1.8317524
28.789017 -62.275379 -1.8299544
28.789017 -60.94413 -1.8282501
28.789017 -59.650379 -1.8266394
28.789017 -58.394131 -1.8251225
28.789017 -57.175381 -1.8236992
28.789017 -55.994129 -1.8223697
28.789017 -54.85038 -1.8211337
28.789017 -53.744129 -1.8199916
28.789017 -52.675381 -1.8189431
28.789017 -51.644131 -1.8179883
28.789017 -50.650379 -1.8171271
28.789017 -49.69413 -1.8163596
28.789017 -48.775379 -1.8156859
28.789017 -47.894131 -1.8151058
28.789017 -47.050381 -1.8146194
28.789017 -46.244129 -1.8142267
28.789017 -45.47538 -1.8139278
28.789017 -44.72538 -1.8137075
28.789017 -43.97538 -1.8135513
28.789017 -43.22538 -1.813459
28.789017 -42.47538 -1.8134307
28.789017 -41.72538 -1.8134663
28.789017 -40.97538 -1.8135659
28.789017 -40.22538 -1.8137294
28.789017 -39.47538 -1.813957
28.789017 -38.72538 -1.8142484
28.789017 -37.97538 -1.8146038
28.789017 -37.22538 -1.8150232
28.789017 -36.47538 -1.8155066
28.789017 -35.72538 -1.8160539
28.789017 -34.97538 -1.8166651
28.789017 -34.22538 -1.8173404
28.789017 -33.47538 -1.8180795
28.789017 -32.72538 -1.8188826
28.789017 -31.97538 -1.8197497
28.789017 -31.22538 -1.8206807
28.789017 -30.47538 -1.8216758
28.789017 -29.72538 -1.8227205
28.789017 -28.975378 -1.8238008
28.789017 -28.225378 -1.8249167
28.789017 -27.47538 -1.8260682
28.789017 -26.72538 -1.8272552
28.789017 -25.97538 -1.8284779
28.789017 -25.225378 -1.829736
28.789017 -24.475378 -1.8310298
28.789017 -23.72538 -1.8323591
28.789017 -22.97538 -1.833724
28.789017 -22.22538 -1.8351245
28.789017 -21.475378 -1.8365605
28.789017 -20.725378 -1.8380321
28.789017 -19.97538 -1.8395393
28.789017 -19.22538 -1.841082
28.789017 -18.47538 -1.8426603
28.789017 -17.725378 -1.8442742
28.789017 -16.975378 -1.8459237
28.789017 -16.22538 -1.8476087
28.789017 -15.47538 -1.8493292
28.789017 -14.706631 -1.8510686
28.789017 -13.900377 -1.8528103
28.789017 -13.056628 -1.8545539
28.789017 -12.175379 -1.8562999
28.789017 -11.25663 -1.8580478
28.789017 -10.300381 -1.8597981
28.789017 -9.3066273 -1.8615503
28.789017 -8.2753782 -1.8633049
28.789017 -7.2066288 -1.8650614
28.789017 -6.1003799 -1.8668201
28.789017 -4.9566312 -1.8685811
28.789017 -3.7753766 -1.870344
28.789017 -2.5566275 -1.8721092
28.789017 -1.3003787 -1.8738766
28.789017 -0.0066299438 -1.875646
28.789017 1.3246188 -1.8774176
28.789017 2.6933739 -1.8791914
28.789017 4.0996227 -1.8809673
28.789017 5.5433717 -1.8827453
28.789017 7.0246201 -1.8845254
29.74527 -67.97538 -1.8411132
29.74527 -66.494133 -1.8391401
29.74527 -65.050377 -1.8372577
29.74527 -63.644131 -1.835466
29.74527 -62.275379 -1.833765
29.74527 -60.94413 -1.8321546
29.74527 -59.650379 -1.830635
29.74527 -58.394131 -1.8292059
29.74527 -57.175381 -1.8278675
29.74527 -55.994129 -1.8266199
29.74527 -54.85038 -1.8254629
29.74527 -53.744129 -1.8243966
29.74527 -52.675381 -1.8234209
29.74527 -51.644131 -1.8225359
29.74527 -50.650379 -1.8217416
29.74527 -49.69413 -1.821038
29.74527 -48.775379 -1.820425
29.74527 -47.894131 -1.8199028
29.74527 -47.050381 -1.8194711
29.74527 -46.244129 -1.8191302
29.74527 -45.47538 -1.8188798
29.74527 -44.72538 -1.8187046
29.74527 -43.97538 -1.8185887
29.74527 -43.22538 -1.8185322
29.74527 -42.47538 -1.8185351
29.74527 -41.72538 -1.8185973
29.74527 -40.97538 -1.8187189
29.74527 -40.22538 -1.8188999
29.74527 -39.47538 -1.8191402
29.74527 -38.72538 -1.8194399
29.74527 -37.97538 -1.8197989
29.74527 -37.22538 -1.8202174
29.74527 -36.47538 -1.8206952
29.74527 -35.72538 -1.8212323
29.74527 -34.97538 -1.8218288
29.74527 -34.22538 -1.8224847
29.74527 -33.47538 -1.8232
29.74527 -32.72538 -1.8239746
29.74527 -31.97538 -1.8248086
29.74527 -31.22538 -1.825702
29.74527 -30.47538 -1.8266547
29.74527 -29.72538 -1.8276541
29.74527 -28.975378 -1.8286875
29.74527 -28.225378 -1.8297551
29.74527 -27.47538 -1.8308566
29.74527 -26.72538 -1.8319921
29.74527 -25.97538 -1.8331617
29.74527 -25.225378 -1.8343654
29.74527 -24.475378 -1.8356031
29.74527 -23.72538 -1.8368747
29.74527 -22.97538 -1.8381805
29.74527 -22.22538 -1.8395202
29.74527 -21.475378 -1.8408941
29.74527 -20.725378 -1.842302
29.74527 -19.97538 -1.8437438
29.74527 -19.22538 -1.8452197
29.74527 -18.47538 -1.8467296
29.74527 -17.725378 -1.8482736
29.74527 -16.975378 -1.8498516
29.74527 -16.22538 -1.8514637
29.74527 -15.47538 -1.8531097
29.74527 -14.706631 -1.8547728
29.74527 -13.900377 -1.8564357
29.74527 -13.056628 -1.8580984
29.74527 -12.175379 -1.859761
29.74527 -11.25663 -1.8614235
29.74527 -10.300381 -1.8630859
29.74527 -9.3066273 -1.8647481
29.74527 -8.2753782 -1.8664103
29.74527 -7.2066288 -1.8680723
29.74527 -6.1003799 -1.8697342
29.74527 -4.9566312 -1.8713958
29.74527 -3.7753766 -1.8730574
29.74527 -2.5566275 -1.8747189
29.74527 -1.3003787 -1.8763802
29.74527 -0.0066299438 -1.8780414
29.74527 1.3246188 -1.8797024
29.74527 2.6933739 -1.8813634
29.74527 4.0996227 -1.8830242
29.74527 5.5433717 -1.8846849
29.74527 7.0246201 -1.8863454
30.739025 -67.97538 -1.8445593
30.739025 -66.494133 -1.8426889
30.739025 -65.050377 -1.8409061
30.739025 -63.644131 -1.839211
30.739025 -62.275379 -1.8376034
30.739025 -60.94413 -1.8360835
30.739025 -59.650379 -1.8346511
30.739025 -58.394131 -1.8333063
30.739025 -57.175381 -1.8320491
30.739025 -55.994129 -1.8308794
30.739025 -54.85038 -1.8297975
30.739025 -53.744129 -1.8288031
30.739025 -52.675381 -1.8278961
30.739025 -51.644131 -1.8270769
30.739025 -50.650379 -1.8263452
30.739025 -49.69413 -1.8257011
30.739025 -48.775379 -1.8251446
30.739025 -47.894131 -1.8246758
30.739025 -47.050381 -1.8242944
30.739025 -46.244129 -1.8240007
30.739025 -45.47538 -1.8237945
30.739025 -44.72538 -1.8236597
30.739025 -43.97538 -1.8235799
30.739025 -43.22538 -1.8235551
30.739025 -42.47538 -1.8235854
30.739025 -41.72538 -1.8236706
30.739025 -40.97538 -1.8238109
30.739025 -40.22538 -1.8240062
30.739025 -39.47538 -1.8242565
30.739025 -38.72538 -1.8245618
30.739025 -37.97538 -1.8249222
30.739025 -37.22538 -1.8253376
30.739025 -36.47538 -1.825808
30.739025 -35.72538 -1.8263335
30.739025 -34.97538 -1.826914
30.739025 -34.22538 -1.8275495
30.739025 -33.47538 -1.82824
30.739025 -32.72538 -1.8289856
30.739025 -31.97538 -1.8297862
30.739025 -31.22538 -1.8306417
30.739025 -30.47538 -1.8315524
30.739025 -29.72538 -1.8325067
30.739025 -28.975378 -1.8334935
30.739025 -28.225378 -1.8345127
30.739025 -27.47538 -1.8355644
30.739025 -26.72538 -1.8366485
30.739025 -25.97538 -1.8377651
30.739025 -25.225378 -1.838914
30.739025 -24.475378 -1.8400954
30.739025 -23.72538 -1.8413093
30.739025 -22.97538 -1.8425556
30.739025 -22.22538 -1.8438344
30.739025 -21.475378 -1.8451456
30.739025 -20.725378 -1.8464892
30.739025 -19.97538 -1.8478652
30.739025 -19.22538 -1.8492737
30.739025 -18.47538 -1.8507147
30.739025 -17.725378 -1.852188
30.739025 -16.975378 -1.8536938
30.739025 -16.22538 -1.8552321
30.739025 -15.47538 -1.8568028
30.739025 -14.706631 -1.8583885
30.739025 -13.900377 -1.8599722
30.739025 -13.056628 -1.8615538
30.739025 -12.175379 -1.8631332
30.739025 -11.25663 -1.8647103
30.739025 -10.300381 -1.8662854
30.739025 -9.3066273 -1.8678583
30.739025 -8.2753782 -1.8694291
30.739025 -7.2066288 -1.8709977
30.739025 -6.1003799 -1.8725641
30.739025 -4.9566312 -1.8741283
30.739025 -3.7753766 -1.8756906
30.739025 -2.5566275 -1.8772506
30.739025 -1.3003787 -1.8788083
30.739025 -0.0066299438 -1.8803639
30.739025 1.3246188 -1.8819175
30.739025 2.6933739 -1.8834689
30.739025 4.0996227 -1.885018
30.739025 5.5433717 -1.8865651
30.739025 7.0246201 -1.8881099
31.770279 -67.97538 -1.8480468
31.770279 -66.494133 -1.8462759
31.770279 -65.050377 -1.8445895
31.770279 -63.644131 -1.8429874
31.770279 -62.275379 -1.8414699
31.770279 -60.94413 -1.8400367
31.770279 -59.650379 -1.838688
31.770279 -58.394131 -1.8374238
31.770279 -57.175381 -1.8362439
31.770279 -55.994129 -1.8351485
31.770279 -54.85038 -1.8341376
31.770279 -53.744129 -1.8332109
31.770279 -52.675381 -1.8323689
31.770279 -51.644131 -1.8316112
31.770279 -50.650379 -1.830938
31.770279 -49.69413 -1.8303492
31.770279 -48.775379 -1.8298448
31.770279 -47.894131 -1.8294249
31.770279 -47.050381 -1.8290894
31.770279 -46.244129 -1.8288383
31.770279 -45.47538 -1.8286717
31.770279 -44.72538 -1.8285728
31.770279 -43.97538 -1.8285247
31.770279 -43.22538 -1.8285276
31.770279 -42.47538 -1.8285815
31.770279 -41.72538 -1.8286861
31.770279 -40.97538 -1.8288418
31.770279 -40.22538 -1.8290485
31.770279 -39.47538 -1.829306
31.770279 -38.72538 -1.8296145
31.770279 -37.97538 -1.8299738
31.770279 -37.22538 -1.8303841
31.770279 -36.47538 -1.8308455
31.770279 -35.72538 -1.8313576
31.770279 -34.97538 -1.8319207
31.770279 -34.22538 -1.8325348
31.770279 -33.47538 -1.8331997
31.770279 -32.72538 -1.8339156
31.770279 -31.97538 -1.8346823
31.770279 -31.22538 -1.8355001
31.770279 -30.47538 -1.8363688
31.770279 -29.72538 -1.8372784
31.770279 -28.975378 -1.8382187
31.770279 -28.225378 -1.8391898
31.770279 -27.47538 -1.8401916
31.770279 -26.72538 -1.8412243
31.770279 -25.97538 -1.8422877
31.770279 -25.225378 -1.843382
31.770279 -24.475378 -1.844507
31.770279 -23.72538 -1.8456627
31.770279 -22.97538 -1.8468493
31.770279 -22.22538 -1.8480667
31.770279 -21.475378 -1.8493149
31.770279 -20.725378 -1.8505938
31.770279 -19.97538 -1.8519036
31.770279 -19.22538 -1.8532441
31.770279 -18.47538 -1.8546153
31.770279 -17.725378 -1.8560175
31.770279 -16.975378 -1.8574502
31.770279 -16.22538 -1.8589139
31.770279 -15.47538 -1.8604083
31.770279 -14.706631 -1.8619162
31.770279 -13.900377 -1.8634201
31.770279 -13.056628 -1.8649201
31.770279 -12.175379 -1.8664162
31.770279 -11.25663 -1.8679084
31.770279 -10.300381 -1.8693966
31.770279 -9.3066273 -1.8708808
31.770279 -8.2753782 -1.8723612
31.770279 -7.2066288 -1.8738376
31.770279 -6.1003799 -1.8753102
31.770279 -4.9566312 -1.8767787
31.770279 -3.7753766 -1.8782433
31.770279 -2.5566275 -1.8797041
31.770279 -1.3003787 -1.8811609
31.770279 -0.0066299438 -1.8826138
31.770279 1.3246188 -1.8840626
31.770279 2.6933739 -1.8855077
31.770279 4.0996227 -1.8869487
31.770279 5.5433717 -1.8883859
31.770279 7.0246201 -1.8898191
32.839012 -67.97538 -1.8515757
32.839012 -66.494133 -1.8499011
32.839012 -65.050377 -1.8483075
32.839012 -63.644131 -1.8467952
32.839012 -62.275379 -1.8453641
32.839012 -60.94413 -1.8440143
32.839012 -59.650379 -1.8427455
32.839012 -58.394131 -1.8415581
32.839012 -57.175381 -1.8404518
32.839012 -55.994129 -1.8394269
32.839012 -54.85038 -1.838483
32.839012 -53.744129 -1.8376204
32.839012 -52.675381 -1.836839
32.839012 -51.644131 -1.8361387
32.839012 -50.650379 -1.8355198
32.839012 -49.69413 -1.8349819
32.839012 -48.775379 -1.8345253
32.839012 -47.894131 -1.83415
32.839012 -47.050381 -1.8338559
32.839012 -46.244129 -1.8336428
32.839012 -45.47538 -1.8335111
32.839012 -44.72538 -1.8334435
32.839012 -43.97538 -1.833423
32.839012 -43.22538 -1.8334496
32.839012 -42.47538 -1.8335232
32.839012 -41.72538 -1.8336439
32.839012 -40.97538 -1.8338118
32.839012 -40.22538 -1.8340266
32.839012 -39.47538 -1.8342885
32.839012 -38.72538 -1.8345976
32.839012 -37.97538 -1.8349537
32.839012 -37.22538 -1.8353568
32.839012 -36.47538 -1.8358071
32.839012 -35.72538 -1.8363044
32.839012 -34.97538 -1.8368489
32.839012 -34.22538 -1.8374403
32.839012 -33.47538 -1.8380789
32.839012 -32.72538 -1.8387645
32.839012 -31.97538 -1.8394972
32.839012 -31.22538 -1.8402771
32.839012 -30.47538 -1.8411039
32.839012 -29.72538 -1.8419689
32.839012 -28.975378 -1.8428628
32.839012 -28.225378 -1.843786
32.839012 -27.47538 -1.8447381
32.839012 -26.72538 -1.8457193
32.839012 -25.97538 -1.8467296
32.839012 -25.225378 -1.847769
32.839012 -24.475378 -1.8488375
32.839012 -23.72538 -1.8499351
32.839012 -22.97538 -1.8510616
32.839012 -22.22538 -1.8522173
32.839012 -21.475378 -1.853402
32.839012 -20.725378 -1.8546158
32.839012 -19.97538 -1.8558587
32.839012 -19.22538 -1.8571306
32.839012 -18.47538 -1.8584316
32.839012 -17.725378 -1.8597617
32.839012 -16.975378 -1.8611208
32.839012 -16.22538 -1.8625091
32.839012 -15.47538 -1.8639264
32.839012 -14.706631 -1.8653555
32.839012 -13.900377 -1.8667792
32.839012 -13.056628 -1.8681973
32.839012 -12.175379 -1.8696101
32.839012 -11.25663 -1.8710175
32.839012 -10.300381 -1.8724192
32.839012 -9.3066273 -1.8738157
32.839012 -8.2753782 -1.8752066
32.839012 -7.2066288 -1.8765922
32.839012 -6.1003799 -1.8779721
32.839012 -4.9566312 -1.8793467
32.839012 -3.7753766 -1.880716
32.839012 -2.5566275 -1.8820796
32.839012 -1.3003787 -1.8834379
32.839012 -0.0066299438 -1.8847907
32.839012 1.3246188 -1.886138
32.839012 2.6933739 -1.8874799
32.839012 4.0996227 -1.8888162
32.839012 5.5433717 -1.8901473
32.839012 7.0246201 -1.8914728
33.945267 -67.97538 -1.8551463
33.945267 -66.494133 -1.8535644
33.945267 -65.050377 -1.8520606
33.945267 -63.644131 -1.8506345
33.945267 -62.275379 -1.8492864
33.945267 -60.94413 -1.8480163
33.945267 -59.650379 -1.8468239
33.945267 -58.394131 -1.8457096
33.945267 -57.175381 -1.8446732
33.945267 -55.994129 -1.8437146
33.945267 -54.85038 -1.842834
33.945267 -53.744129 -1.8420314
33.945267 -52.675381 -1.8413066
33.945267 -51.644131 -1.8406596
33.945267 -50.650379 -1.8400908
33.945267 -49.69413 -1.8395997
33.945267 -48.775379 -1.8391865
33.945267 -47.894131 -1.8388513
33.945267 -47.050381 -1.8385941
33.945267 -46.244129 -1.8384147
33.945267 -45.47538 -1.8383132
33.945267 -44.72538 -1.8382725
33.945267 -43.97538 -1.8382751
33.945267 -43.22538 -1.8383213
33.945267 -42.47538 -1.838411
33.945267 -41.72538 -1.838544
33.945267 -40.97538 -1.8387207
33.945267 -40.22538 -1.8389407
33.945267 -39.47538 -1.8392043
33.945267 -38.72538 -1.8395113
33.945267 -37.97538 -1.8398618
33.945267 -37.22538 -1.8402557
33.945267 -36.47538 -1.8406932
33.945267 -35.72538 -1.8411741
33.945267 -34.97538 -1.8416985
33.945267 -34.22538 -1.8422664
33.945267 -33.47538 -1.8428777
33.945267 -32.72538 -1.8435326
33.945267 -31.97538 -1.8442309
33.945267 -31.22538 -1.8449726
33.945267 -30.47538 -1.8457578
33.945267 -29.72538 -1.8465785
33.945267 -28.975378 -1.8474264
33.945267 -28.225378 -1.8483016
33.945267 -27.47538 -1.8492042
33.945267 -26.72538 -1.850134
33.945267 -25.97538 -1.8510911
33.945267 -25.225378 -1.8520756
33.945267 -24.475378 -1.8530873
33.945267 -23.72538 -1.8541262
33.945267 -22.97538 -1.8551925
33.945267 -22.22538 -1.8562862
33.945267 -21.475378 -1.8574071
33.945267 -20.725378 -1.8585553
33.945267 -19.97538 -1.8597308
33.945267 -19.22538 -1.8609335
33.945267 -18.47538 -1.8621637
33.945267 -17.725378 -1.8634211
33.945267 -16.975378 -1.8647058
33.945267 -16.22538 -1.8660178
33.945267 -15.47538 -1.867357
33.945267 -14.706631 -1.8687066
33.945267 -13.900377 -1.8700495
33.945267 -13.056628 -1.8713856
33.945267 -12.175379 -1.872715
33.945267 -11.25663 -1.8740377
33.945267 -10.300381 -1.8753537
33.945267 -9.3066273 -1.8766629
33.945267 -8.2753782 -1.8779655
33.945267 -7.2066288 -1.8792613
33.945267 -6.1003799 -1.8805503
33.945267 -4.9566312 -1.8818326
33.945267 -3.7753766 -1.8831083
33.945267 -2.5566275 -1.8843771
33.945267 -1.3003787 -1.8856393
33.945267 -0.0066299438 -1.8868947
33.945267 1.3246188 -1.8881434
33.945267 2.6933739 -1.8893855
33.945267 4.0996227 -1.8906207
33.945267 5.5433717 -1.8918493
33.945267 7.0246201 -1.8930712
35.08902 -67.97538 -1.8587582
35.08902 -66.494133 -1.8572659
35.08902 -65.050377 -1.8558483
35.08902 -63.644131 -1.8545052
35.08902 -62.275379 -1.8532366
35.08902 -60.94413 -1.8520426
35.08902 -59.650379 -1.8509231
35.08902 -58.394131 -1.8498781
35.08902 -57.175381 -1.8489077
35.08902 -55.994129 -1.8480119
35.08902 -54.85038 -1.8471905
35.08902 -53.744129 -1.8464438
35.08902 -52.675381 -1.8457716
35.08902 -51.644131 -1.845174
35.08902 -50.650379 -1.8446509
35.08902 -49.69413 -1.8442023
35.08902 -48.775379 -1.8438282
35.08902 -47.894131 -1.8435287
35.08902 -47.050381 -1.8433039
35.08902 -46.244129 -1.8431535
35.08902 -45.47538 -1.8430777
35.08902 -44.72538 -1.8430592
35.08902 -43.97538 -1.8430809
35.08902 -43.22538 -1.8431426
35.08902 -42.47538 -1.8432444
35.08902 -41.72538 -1.8433865
35.08902 -40.97538 -1.8435686
35.08902 -40.22538 -1.8437908
35.08902 -39.47538 -1.8440531
35.08902 -38.72538 -1.8443556
35.08902 -37.97538 -1.8446982
35.08902 -37.22538 -1.845081
35.08902 -36.47538 -1.8455037
35.08902 -35.72538 -1.8459667
35.08902 -34.97538 -1.8464698
35.08902 -34.22538 -1.8470129
35.08902 -33.47538 -1.8475962
35.08902 -32.72538 -1.8482196
35.08902 -31.97538 -1.8488832
35.08902 -31.22538 -1.8495868
35.08902 -30.47538 -1.8503306
35.08902 -29.72538 -1.8511071
35.08902 -28.975378 -1.8519092
35.08902 -28.225378 -1.8527367
35.08902 -27.47538 -1.8535897
35.08902 -26.72538 -1.854468
35.08902 -25.97538 -1.855372
35.08902 -25.225378 -1.8563013
35.08902 -24.475378 -1.8572561
35.08902 -23.72538 -1.8582364
35.08902 -22.97538 -1.8592421
35.08902 -22.22538 -1.8602734
35.08902 -21.475378 -1.86133
35.08902 -20.725378 -1.8624122
35.08902 -19.97538 -1.8635198
35.08902 -19.22538 -1.8646529
35.08902 -18.47538 -1.8658115
35.08902 -17.725378 -1.8669955
35.08902 -16.975378 -1.868205
35.08902 -16.22538 -1.8694398
35.08902 -15.47538 -1.8707002
35.08902 -14.706631 -1.8719695
35.08902 -13.900377 -1.8732311
35.08902 -13.056628 -1.8744848
35.08902 -12.175379 -1.8757309
35.08902 -11.25663 -1.8769691
35.08902 -10.300381 -1.8781997
35.08902 -9.3066273 -1.8794224
35.08902 -8.2753782 -1.8806375
35.08902 -7.2066288 -1.8818449
35.08902 -6.1003799 -1.8830444
35.08902 -4.9566312 -1.8842362
35.08902 -3.7753766 -1.8854203
35.08902 -2.5566275 -1.8865967
35.08902 -1.3003787 -1.8877652
35.08902 -0.0066299438 -1.888926
35.08902 1.3246188 -1.8900791
35.08902 2.6933739 -1.8912245
35.08902 4.0996227 -1.8923621
35.08902 5.5433717 -1.893492
35.08902 7.0246201 -1.8946141
36.270275 -67.97538 -1.8624116
36.270275 -66.494133 -1.8610057
36.270275 -65.050377 -1.8596709
36.270275 -63.644131 -1.8584071
36.270275 -62.275379 -1.8572146
36.270275 -60.94413 -1.8560932
36.270275 -59.650379 -1.8550428
36.270275 -58.394131 -1.8540635
36.270275 -57.175381 -1.8531555
36.270275 -55.994129 -1.8523184
36.270275 -54.85038 -1.8515525
36.270275 -53.744129 -1.8508577
36.270275 -52.675381 -1.850234
36.270275 -51.644131 -1.8496815
36.270275 -50.650379 -1.8492
36.270275 -49.69413 -1.8487897
36.270275 -48.775379 -1.8484504
36.270275 -47.894131 -1.8481823
36.270275 -47.050381 -1.8479854
36.270275 -46.244129 -1.8478595
36.270275 -45.47538 -1.8478047
36.270275 -44.72538 -1.847804
36.270275 -43.97538 -1.8478403
36.270275 -43.22538 -1.8479135
36.270275 -42.47538 -1.8480239
36.270275 -41.72538 -1.8481712
36.270275 -40.97538 -1.8483555
36.270275 -40.22538 -1.8485769
36.270275 -39.47538 -1.8488352
36.270275 -38.72538 -1.8491305
36.270275 -37.97538 -1.8494629
36.270275 -37.22538 -1.8498323
36.270275 -36.47538 -1.8502387
36.270275 -35.72538 -1.850682
36.270275 -34.97538 -1.8511624
36.270275 -34.22538 -1.8516799
36.270275 -33.47538 -1.8522342
36.270275 -32.72538 -1.8528258
36.270275 -31.97538 -1.8534541
36.270275 -31.22538 -1.8541195
36.270275 -30.47538 -1.854822
36.270275 -29.72538 -1.8555548
36.270275 -28.975378 -1.8563111
36.270275 -28.225378 -1.857091
36.270275 -27.47538 -1.8578944
36.270275 -26.72538 -1.8587215
36.270275 -25.97538 -1.8595722
36.270275 -25.225378 -1.8604463
36.270275 -24.475378 -1.8613441
36.270275 -23.72538 -1.8622655
36.270275 -22.97538 -1.8632103
36.270275 -22.22538 -1.8641788
36.270275 -21.475378 -1.8651708
36.270275 -20.725378 -1.8661865
36.270275 -19.97538 -1.8672256
36.270275 -19.22538 -1.8682885
36.270275 -18.47538 -1.8693749
36.270275 -17.725378 -1.8704847
36.270275 -16.975378 -1.8716183
36.270275 -16.22538 -1.8727753
36.270275 -15.47538 -1.873956
36.270275 -14.706631 -1.8751441
36.270275 -13.900377 -1.8763238
36.270275 -13.056628 -1.8774949
36.270275 -12.175379 -1.8786576
36.270275 -11.25663 -1.8798118
36.270275 -10.300381 -1.8809574
36.270275 -9.3066273 -1.8820944
36.270275 -8.2753782 -1.8832229
36.270275 -7.2066288 -1.884343
36.270275 -6.1003799 -1.8854545
36.270275 -4.9566312 -1.8865576
36.270275 -3.7753766 -1.8876522
36.270275 -2.5566275 -1.8887382
36.270275 -1.3003787 -1.8898156
36.270275 -0.0066299438 -1.8908845
36.270275 1.3246188 -1.891945
36.270275 2.6933739 -1.8929969
36.270275 4.0996227 -1.8940403
36.270275 5.5433717 -1.8950752
36.270275 7.0246201 -1.8961016
37.489033 -67.97538 -1.8661065
37.489033 -66.494133 -1.8647835
37.489033 -65.050377 -1.8635284
37.489033 -63.644131 -1.8623407
37.489033 -62.275379 -1.8612206
37.489033 -60.94413 -1.8601681
37.489033 -59.650379 -1.8591833
37.489033 -58.394131 -1.8582661
37.489033 -57.175381 -1.8574164
37.489033 -55.994129 -1.8566344
37.489033 -54.85038 -1.85592
37.489033 -53.744129 -1.8552731
37.489033 -52.675381 -1.854694
37.489033 -51.644131 -1.8541824
37.489033 -50.650379 -1.8537384
37.489033 -49.69413 -1.853362
37.489033 -48.775379 -1.8530532
37.489033 -47.894131 -1.8528121
37.489033 -47.050381 -1.8526385
37.489033 -46.244129 -1.8525325
37.489033 -45.47538 -1.8524941
37.489033 -44.72538 -1.8525066
37.489033 -43.97538 -1.8525532
37.489033 -43.22538 -1.8526341
37.489033 -42.47538 -1.8527491
37.489033 -41.72538 -1.8528981
37.489033 -40.97538 -1.8530815
37.489033 -40.22538 -1.8532988
37.489033 -39.47538 -1.8535503
37.489033 -38.72538 -1.8538361
37.489033 -37.97538 -1.8541559
37.489033 -37.22538 -1.8545098
37.489033 -36.47538 -1.854898
37.489033 -35.72538 -1.8553202
37.489033 -34.97538 -1.8557767
37.489033 -34.22538 -1.8562672
37.489033 -33.47538 -1.856792
37.489033 -32.72538 -1.8573508
37.489033 -31.97538 -1.8579438
37.489033 -31.22538 -1.8585709
37.489033 -30.47538 -1.8592323
37.489033 -29.72538 -1.8599215
37.489033 -28.975378 -1.8606323
37.489033 -28.225378 -1.8613647
37.489033 -27.47538 -1.8621187
37.489033 -26.72538 -1.8628944
37.489033 -25.97538 -1.8636917
37.489033 -25.225378 -1.8645107
37.489033 -24.475378 -1.8653512
37.489033 -23.72538 -1.8662133
37.489033 -22.97538 -1.8670971
37.489033 -22.22538 -1.8680025
37.489033 -21.475378 -1.8689295
37.489033 -20.725378 -1.8698782
37.489033 -19.97538 -1.8708485
37.489033 -19.22538 -1.8718404
37.489033 -18.47538 -1.8728539
37.489033 -17.725378 -1.8738891
37.489033 -16.975378 -1.8749459
37.489033 -16.22538 -1.8760242
37.489033 -15.47538 -1.8771243
37.489033 -14.706631 -1.8782306
37.489033 -13.900377 -1.8793279
37.489033 -13.056628 -1.880416
37.489033 -12.175379 -1.8814952
37.489033 -11.25663 -1.8825655
37.489033 -10.300381 -1.8836266
37.489033 -9.3066273 -1.8846787
37.489033 -8.2753782 -1.8857218
37.489033 -7.2066288 -1.8867558
37.489033 -6.1003799 -1.8877808
37.489033 -4.9566312 -1.8887967
37.489033 -3.7753766 -1.8898036
37.489033 -2.5566275 -1.8908015
37.489033 -1.3003787 -1.8917904
37.489033 -0.0066299438 -1.8927702
37.489033 1.3246188 -1.893741
37.489033 2.6933739 -1.8947028
37.489033 4.0996227 -1.8956555
37.489033 5.5433717 -1.8965992
37.489033 7.0246201 -1.8975338
38.745262 -67.97538 -1.8698426
38.745262 -66.494133 -1.8685995
38.745262 -65.050377 -1.8674206
38.745262 -63.644131 -1.8663055
38.745262 -62.275379 -1.8652544
38.745262 -60.94413 -1.8642675
38.745262 -59.650379 -1.8633444
38.745262 -58.394131 -1.8624855
38.745262 -57.175381 -1.8616906
38.745262 -55.994129 -1.8609598
38.745262 -54.85038 -1.8602929
38.745262 -53.744129 -1.8596901
38.745262 -52.675381 -1.8591512
38.745262 -51.644131 -1.8586766
38.745262 -50.650379 -1.8582658
38.745262 -49.69413 -1.8579191
38.745262 -48.775379 -1.8576363
38.745262 -47.894131 -1.8574177
38.745262 -47.050381 -1.8572631
38.745262 -46.244129 -1.8571725
38.745262 -45.47538 -1.8571459
38.745262 -44.72538 -1.8571671
38.745262 -43.97538 -1.8572199
38.745262 -43.22538 -1.8573042
38.745262 -42.47538 -1.85742
38.745262 -41.72538 -1.8575673
38.745262 -40.97538 -1.8577462
38.745262 -40.22538 -1.8579566
38.745262 -39.47538 -1.8581985
38.745262 -38.72538 -1.858472
38.745262 -37.97538 -1.858777
38.745262 -37.22538 -1.8591136
38.745262 -36.47538 -1.8594816
38.745262 -35.72538 -1.8598812
38.745262 -34.97538 -1.8603123
38.745262 -34.22538 -1.860775
38.745262 -33.47538 -1.8612691
38.745262 -32.72538 -1.8617948
38.745262 -31.97538 -1.8623521
38.745262 -31.22538 -1.8629408
38.745262 -30.47538 -1.8635612
38.745262 -29.72538 -1.864207
38.745262 -28.975378 -1.8648725
38.745262 -28.225378 -1.8655576
38.745262 -27.47538 -1.8662623
38.745262 -26.72538 -1.8669866
38.745262 -25.97538 -1.8677306
38.745262 -25.225378 -1.8684942
38.745262 -24.475378 -1.8692772
38.745262 -23.72538 -1.87008
38.745262 -22.97538 -1.8709024
38.745262 -22.22538 -1.8717444
38.745262 -21.475378 -1.872606
38.745262 -20.725378 -1.8734872
38.745262 -19.97538 -1.8743881
38.745262 -19.22538 -1.8753085
38.745262 -18.47538 -1.8762486
38.745262 -17.725378 -1.8772084
38.745262 -16.975378 -1.8781875
38.745262 -16.22538 -1.8791865
38.745262 -15.47538 -1.880205
38.745262 -14.706631 -1.8812287
38.745262 -13.900377 -1.882243
38.745262 -13.056628 -1.8832481
38.745262 -12.175379 -1.8842438
38.745262 -11.25663 -1.8852303
38.745262 -10.300381 -1.8862075
38.745262 -9.3066273 -1.8871753
38.745262 -8.2753782 -1.8881338
38.745262 -7.2066288 -1.889083
38.745262 -6.1003799 -1.890023
38.745262 -4.9566312 -1.8909535
38.745262 -3.7753766 -1.8918749
38.745262 -2.5566275 -1.892787
38.745262 -1.3003787 -1.8936896
38.745262 -0.0066299438 -1.894583
38.745262 1.3246188 -1.8954672
38.745262 2.6933739 -1.8963419
38.745262 4.0996227 -1.8972074
38.745262 5.5433717 -1.8980637
38.745262 7.0246201 -1.8989105
40.039017 -67.97538 -1.8736205
40.039017 -66.494133 -1.8724538
40.039017 -65.050377 -1.8713475
40.039017 -63.644131 -1.8703017
40.039017 -62.275379 -1.8693162
40.039017 -60.94413 -1.8683912
40.039017 -59.650379 -1.8675264
40.039017 -58.394131 -1.8667221
40.039017 -57.175381 -1.8659781
40.039017 -55.994129 -1.8652945
40.039017 -54.85038 -1.8646713
40.039017 -53.744129 -1.8641084
40.039017 -52.675381 -1.8636061
40.039017 -51.644131 -1.8631641
40.039017 -50.650379 -1.8627824
40.039017 -49.69413 -1.8624611
40.039017 -48.775379 -1.8622001
40.039017 -47.894131 -1.8619996
40.039017 -47.050381 -1.8618594
40.039017 -46.244129 -1.8617797
40.039017 -45.47538 -1.8617604
40.039017 -44.72538 -1.8617858
40.039017 -43.97538 -1.8618402
40.039017 -43.22538 -1.8619241
40.039017 -42.47538 -1.8620368
40.039017 -41.72538 -1.8621789
40.039017 -40.97538 -1.8623501
40.039017 -40.22538 -1.8625505
40.039017 -39.47538 -1.86278
40.039017 -38.72538 -1.8630387
40.039017 -37.97538 -1.8633265
40.039017 -37.22538 -1.8636435
40.039017 -36.47538 -1.8639897
40.039017 -35.72538 -1.864365
40.039017 -34.97538 -1.8647696
40.039017 -34.22538 -1.8652031
40.039017 -33.47538 -1.865666
40.039017 -32.72538 -1.866158
