# .PCD v0.7 - Point Cloud Data file format
VERSION 0.7
FIELDS x y z
SIZE 4 4 4
TYPE F F F
COUNT 1 1 1
WIDTH 1580
HEIGHT 1
VIEWPOINT 0 0 0 1 0 0 0
POINTS 1580
DATA ascii
76.310272 0.83753967 0.040335383
76.310272 2.1648836 0.066555239
76.310272 3.4312901 0.09708786
76.310272 4.6414466 0.13214554
76.310272 5.8000393 0.17194052
76.310272 6.9117584 0.21668518
76.310272 7.9812899 0.26659179
76.310272 9.0133209 0.32187262
76.310272 10.012541 0.38273999
76.310272 10.983633 0.44940612
76.310272 11.93129 0.5220834
76.310272 12.859729 0.60089153
76.310272 13.77129 0.685579
76.310272 14.667851 0.77580208
76.310272 15.551291 0.87121707
76.310272 16.423477 0.97147977
76.310272 17.286291 1.0762467
76.310272 18.141603 1.1851734
76.310272 18.991289 1.2979164
76.310272 19.837229 1.4141319
76.310272 20.68129 1.5334755
76.310272 21.525354 1.6556041
76.310272 22.37129 1.7801731
76.310272 23.220978 1.9068387
76.310272 24.07629 2.0352573
76.310272 24.939102 2.1650851
76.310272 25.811291 2.2959781
76.310272 26.694727 2.4275918
76.310272 27.59129 2.5595832
76.310272 28.502853 2.6916082
76.310272 29.43129 2.8233223
76.310272 30.378944 2.9543099
76.310272 31.350042 3.0838666
76.310272 32.349262 3.2112134
76.310272 33.38129 3.3355737
76.310272 34.450821 3.4561698
76.310272 35.562538 3.5722246
76.310272 36.721138 3.6829615
76.310272 37.931293 3.7876012
76.310272 39.197697 3.8853674
76.310272 40.52504 3.9754827
76.310272 41.918007 4.0571694
76.310272 43.381294 4.1296511
76.310272 44.919575 4.1921487
76.310272 46.53754 4.2438855
76.310272 48.239883 4.2840843
76.310272 50.031288 4.3119678
76.310272 51.916451 4.3267584
76.310272 53.900043 4.3276787
76.310272 55.986759 4.313951
76.310272 58.18129 4.2847981
77.060272 -16.81871 -0.021415571
77.060272 -14.624179 -0.026252201
77.060272 -12.53746 -0.028794091
77.060272 -10.553866 -0.028842252
77.060272 -8.6687098 -0.026197694
77.060272 -6.8773041 -0.020661427
77.060272 -5.1749601 -0.012034458
77.060272 -3.5569918 -0.00011780511
77.060272 -2.0187101 0.015287534
77.060272 -0.55542856 0.034380544
77.060272 0.83753967 0.057360202
77.060272 2.1648836 0.084425524
77.060272 3.4312901 0.11577548
77.060272 4.6414466 0.15160908
77.060272 5.8000393 0.19212525
77.060272 6.9117584 0.23752308
77.060272 7.9812899 0.28800151
77.060272 9.0133209 0.34375951
77.060272 10.012541 0.40499613
77.060272 10.983633 0.47191021
77.060272 11.93129 0.54470098
77.060272 12.859729 0.62347883
77.060272 13.77129 0.70800006
77.060272 14.667851 0.79793286
77.060272 15.551291 0.89294541
77.060272 16.423477 0.99270535
77.060272 17.286291 1.0968812
77.060272 18.141603 1.2051401
77.060272 18.991289 1.3171507
77.060272 19.837229 1.4325812
77.060272 20.68129 1.5510989
77.060272 21.525354 1.6723726
77.060272 22.37129 1.7960695
77.060272 23.220978 1.921858
77.060272 24.07629 2.0494063
77.060272 24.939102 2.1783819
77.060272 25.811291 2.3084536
77.060272 26.694727 2.4392884
77.060272 27.59129 2.570555
77.060272 28.502853 2.7019212
77.060272 29.43129 2.833055
77.060272 30.378944 2.9635518
77.060272 31.350042 3.0927172
77.060272 32.349262 3.2197826
77.060272 33.38129 3.343981
77.060272 34.450821 3.4645452
77.060272 35.562538 3.5807076
77.060272 36.721138 3.6917009
77.060272 37.931293 3.796757
77.060272 39.197697 3.8951087
77.060272 40.52504 3.9859884
77.060272 41.918007 4.0686288
77.060272 43.381294 4.1422625
77.060272 44.919575 4.2061219
77.060272 46.53754 4.259439
77.060272 48.239883 4.3014469
77.060272 50.031288 4.331378
77.060272 51.916451 4.3484645
77.060272 53.900043 4.3519397
77.060272 55.986759 4.3410349
77.060272 58.18129 4.3149834
77.810272 -16.81871 -0.01069371
77.810272 -14.624179 -0.015083375
77.810272 -12.53746 -0.017068841
77.810272 -10.553866 -0.016465304
77.810272 -8.6687098 -0.013087967
77.810272 -6.8773041 -0.0067520291
77.810272 -5.1749601 0.002727312
77.810272 -3.5569918 0.015534849
77.810272 -2.0187101 0.031855393
77.810272 -0.55542856 0.051873744
77.810272 0.83753967 0.075774685
77.810272 2.1648836 0.10374303
77.810272 3.4312901 0.13596359
77.810272 4.6414466 0.17262116
77.810272 5.8000393 0.21390048
77.810272 6.9117584 0.25998643
77.810272 7.9812899 0.31106383
77.810272 9.0133209 0.36731738
77.810272 10.012541 0.42893195
77.810272 10.983633 0.49609226
77.810272 11.93129 0.56898326
77.810272 12.859729 0.64770567
77.810272 13.77129 0.73202389
77.810272 14.667851 0.82161856
77.810272 15.551291 0.91617054
77.810272 16.423477 1.0153598
77.810272 17.286291 1.1188675
77.810272 18.141603 1.2263736
77.810272 18.991289 1.3375589
77.810272 19.837229 1.4521042
77.810272 20.68129 1.5696895
77.810272 21.525354 1.689996
77.810272 22.37129 1.8127036
77.810272 23.220978 1.9374932
77.810272 24.07629 2.0640454
77.810272 24.939102 2.1920404
77.810272 25.811291 2.3211594
77.810272 26.694727 2.451082
77.810272 27.59129 2.5814896
77.810272 28.502853 2.7120624
77.810272 29.43129 2.8424807
77.810272 30.378944 2.9723525
77.810272 31.350042 3.1009946
77.810272 32.349262 3.2276497
77.810272 33.38129 3.3515615
77.810272 34.450821 3.4719739
77.810272 35.562538 3.5881302
77.810272 36.721138 3.6992745
77.810272 37.931293 3.8046494
77.810272 39.197697 3.9034986
77.810272 40.52504 3.9950662
77.810272 41.918007 4.0785956
77.810272 43.381294 4.1533303
77.810272 44.919575 4.2185135
77.810272 46.53754 4.2733889
77.810272 48.239883 4.3172002
77.810272 50.031288 4.3491907
77.810272 51.916451 4.3686042
77.810272 53.900043 4.3746839
77.810272 55.986759 4.3666735
77.810272 58.18129 4.3438168
78.560272 -16.81871 0.00083355617
78.560272 -14.624179 -0.0030550843
78.560272 -12.53746 -0.0044258069
78.560272 -10.553866 -0.0031088316
78.560272 -8.6687098 0.0010656227
78.560272 -6.8773041 0.0082673356
78.560272 -5.1749601 0.018666092
78.560272 -3.5569918 0.032431662
78.560272 -2.0187101 0.049733844
78.560272 -0.55542856 0.070742406
78.560272 0.83753967 0.095627129
78.560272 2.1648836 0.1245578
78.560272 3.4312901 0.1577042
78.560272 4.6414466 0.19523612
78.560272 5.8000393 0.23732325
78.560272 6.9117584 0.28413552
78.560272 7.9812899 0.33584264
78.560272 9.0133209 0.39261436
78.560272 10.012541 0.45462051
78.560272 10.983633 0.52203077
78.560272 11.93129 0.59501511
78.560272 12.859729 0.67366391
78.560272 13.77129 0.75774992
78.560272 14.667851 0.84696692
78.560272 15.551291 0.94100881
78.560272 16.423477 1.0395688
78.560272 17.286291 1.142341
78.560272 18.141603 1.2490185
78.560272 18.991289 1.3592952
78.560272 19.837229 1.472865
78.560272 20.68129 1.589421
78.560272 21.525354 1.7086576
78.560272 22.37129 1.8302675
78.560272 23.220978 1.9539449
78.560272 24.07629 2.0793834
78.560272 24.939102 2.2062767
78.560272 25.811291 2.3343182
78.560272 26.694727 2.4632015
78.560272 27.59129 2.5926206
78.560272 28.502853 2.7222691
78.560272 29.43129 2.85184
78.560272 30.378944 2.9809546
78.560272 31.350042 3.1089418
78.560272 32.349262 3.2350564
78.560272 33.38129 3.3585541
78.560272 34.450821 3.4786909
78.560272 35.562538 3.5947223
78.560272 36.721138 3.7059045
78.560272 37.931293 3.811492
78.560272 39.197697 3.9107409
78.560272 40.52504 4.0029068
78.560272 41.918007 4.0872459
78.560272 43.381294 4.1630135
78.560272 44.919575 4.2294645
78.560272 46.53754 4.2858553
78.560272 48.239883 4.3314414
78.560272 50.031288 4.365478
78.560272 51.916451 4.3872213
78.560272 53.900043 4.3959265
78.560272 55.986759 4.3908496
78.560272 58.18129 4.3712459
79.310272 -16.81871 0.01320036
79.310272 -14.624179 0.009868836
79.310272 -12.53746 0.0091729183
79.310272 -10.553866 0.011266595
79.310272 -8.6687098 0.016303852
79.310272 -6.8773041 0.024438679
79.310272 -5.1749601 0.03582507
79.310272 -3.5569918 0.050616998
79.310272 -2.0187101 0.068968467
79.310272 -0.55542856 0.091033466
79.310272 0.83753967 0.11696596
79.310272 2.1648836 0.14691997
79.310272 3.4312901 0.18104945
79.310272 4.6414466 0.21950844
79.310272 5.8000393 0.26245081
79.310272 6.9117584 0.3100307
79.310272 7.9812899 0.36240205
79.310272 9.0133209 0.41971877
79.310272 10.012541 0.48213497
79.310272 10.983633 0.54980445
79.310272 11.93129 0.62288147
79.310272 12.859729 0.7014454
79.310272 13.77129 0.78527778
79.310272 14.667851 0.87408584
79.310272 15.551291 0.9675771
79.310272 16.423477 1.0654582
79.310272 17.286291 1.167437
79.310272 18.141603 1.2732198
79.310272 18.991289 1.3825144
79.310272 19.837229 1.4950279
79.310272 20.68129 1.6104673
79.310272 21.525354 1.7285403
79.310272 22.37129 1.8489532
79.310272 23.220978 1.9714139
79.310272 24.07629 2.0956295
79.310272 24.939102 2.2213066
79.310272 25.811291 2.3481534
79.310272 26.694727 2.4758761
79.310272 27.59129 2.6041822
79.310272 28.502853 2.7327793
79.310272 29.43129 2.8613741
79.310272 30.378944 2.9896007
79.310272 31.350042 3.1168015
79.310272 32.349262 3.2422445
79.310272 33.38129 3.3651981
79.310272 34.450821 3.4849319
79.310272 35.562538 3.600714
79.310272 36.721138 3.7118137
79.310272 37.931293 3.8174989
79.310272 39.197697 3.9170384
79.310272 40.52504 4.0097013
79.310272 41.918007 4.0947561
79.310272 43.381294 4.1714716
79.310272 44.919575 4.2391162
79.310272 46.53754 4.2969589
79.310272 48.239883 4.3442683
79.310272 50.031288 4.3803124
79.310272 51.916451 4.4043612
79.310272 53.900043 4.4156823
79.310272 55.986759 4.4135451
79.310272 58.18129 4.3972178
80.060272 -16.81871 0.026440641
80.060272 -14.624179 0.023724347
80.060272 -12.53746 0.023765033
80.060272 -10.553866 0.026700178
80.060272 -8.6687098 0.032667261
80.060272 -6.8773041 0.041803762
80.060272 -5.1749601 0.05424716
80.060272 -3.5569918 0.070134923
80.060272 -2.0187101 0.089604549
80.060272 -0.55542856 0.11279351
80.060272 0.83753967 0.13983926
80.060272 2.1648836 0.17087932
80.060272 3.4312901 0.20605116
80.060272 4.6414466 0.24549223
80.060272 5.8000393 0.28933999
80.060272 6.9117584 0.33773199
80.060272 7.9812899 0.39080569
80.060272 9.0133209 0.44869852
80.060272 10.012541 0.51154804
80.060272 10.983633 0.57949156
80.060272 11.93129 0.65266675
80.060272 12.859729 0.73114175
80.060272 13.77129 0.81470668
80.060272 14.667851 0.90308285
80.060272 15.551291 0.99599153
80.060272 16.423477 1.0931534
80.060272 17.286291 1.1942899
80.060272 18.141603 1.2991219
80.060272 18.991289 1.4073703
80.060272 19.837229 1.5187567
80.060272 20.68129 1.6330018
80.060272 21.525354 1.7498269
80.060272 22.37129 1.8689528
80.060272 23.220978 1.9901005
80.060272 24.07629 2.1129916
80.060272 24.939102 2.2373466
80.060272 25.811291 2.3628874
80.060272 26.694727 2.4893341
80.060272 27.59129 2.6164081
80.060272 28.502853 2.7438309
80.060272 29.43129 2.8713231
80.060272 30.378944 2.998533
80.060272 31.350042 3.1248167
80.060272 32.349262 3.2494555
80.060272 33.38129 3.3717332
80.060272 34.450821 3.4909322
80.060272 35.562538 3.6063349
80.060272 36.721138 3.7172251
80.060272 37.931293 3.8228838
80.060272 39.197697 3.9225945
80.060272 40.52504 4.0156398
80.060272 41.918007 4.1013021
80.060272 43.381294 4.178865
80.060272 44.919575 4.2476101
80.060272 46.53754 4.3068199
80.060272 48.239883 4.3557782
80.060272 50.031288 4.3937669
80.060272 51.916451 4.4200687
80.060272 53.900043 4.4339666
80.060272 55.986759 4.4347425
80.060272 58.18129 4.42168
80.810272 -16.81871 0.040588528
80.810272 -14.624179 0.038547602
80.810272 -12.53746 0.039388441
80.810272 -10.553866 0.043231342
80.810272 -8.6687098 0.050196622
80.810272 -6.8773041 0.060404584
80.810272 -5.1749601 0.073975541
80.810272 -3.5569918 0.091029793
80.810272 -2.0187101 0.11168767
80.810272 -0.55542856 0.13606946
80.810272 0.83753967 0.16429546
80.810272 2.1648836 0.19648603
80.810272 3.4312901 0.23276143
80.810272 4.6414466 0.273242
80.810272 5.8000393 0.31804794
80.810272 6.9117584 0.36729974
80.810272 7.9812899 0.4211176
80.810272 9.0133209 0.47962186
80.810272 10.012541 0.54293281
80.810272 10.983633 0.61117071
80.810272 11.93129 0.68445599
80.810272 12.859729 0.76284474
80.810272 13.77129 0.84613621
80.810272 14.667851 0.93406576
80.810272 15.551291 1.0263687
80.810272 16.423477 1.1227801
80.810272 17.286291 1.2230355
80.810272 18.141603 1.3268696
80.810272 18.991289 1.4340178
80.810272 19.837229 1.5442158
80.810272 20.68129 1.6571981
80.810272 21.525354 1.7727007
80.810272 22.37129 1.890458
80.810272 23.220978 2.0102055
80.810272 24.07629 2.1316791
80.810272 24.939102 2.2546132
80.810272 25.811291 2.3787434
80.810272 26.694727 2.5038047
80.810272 27.59129 2.6295323
80.810272 28.502853 2.755662
80.810272 29.43129 2.8819284
80.810272 30.378944 3.0079937
80.810272 31.350042 3.1332295
80.810272 32.349262 3.2569315
80.810272 33.38129 3.3783984
80.810272 34.450821 3.496927
80.810272 35.562538 3.6118152
80.810272 36.721138 3.7223611
80.810272 37.931293 3.8278606
80.810272 39.197697 3.9276121
80.810272 40.52504 4.0209126
80.810272 41.918007 4.1070604
80.810272 43.381294 4.1853528
80.810272 44.919575 4.2550864
80.810272 46.53754 4.3155594
80.810272 48.239883 4.3660693
80.810272 50.031288 4.4059129
80.810272 51.916451 4.4343886
80.810272 53.900043 4.4507933
80.810272 55.986759 4.4544244
80.810272 58.18129 4.4445796
81.560272 -16.81871 0.055678081
81.560272 -14.624179 0.054374699
81.560272 -12.53746 0.056080975
81.560272 -10.553866 0.06089944
81.560272 -8.6687098 0.06893263
81.560272 -6.8773041 0.080283076
81.560272 -5.1749601 0.095053315
81.560272 -3.5569918 0.11334588
81.560272 -2.0187101 0.13526331
81.560272 -0.55542856 0.16090813
81.560272 0.83753967 0.19038287
81.560272 2.1648836 0.22379008
81.560272 3.4312901 0.26123229
81.560272 4.6414466 0.30281204
81.560272 5.8000393 0.3486318
81.560272 6.9117584 0.3987942
81.560272 7.9812899 0.45340174
81.560272 9.0133209 0.51255697
81.560272 10.012541 0.57636237
81.560272 10.983633 0.64492047
81.560272 11.93129 0.71833384
81.560272 12.859729 0.79664636
81.560272 13.77129 0.87966597
81.560272 14.667851 0.9671424
81.560272 15.551291 1.0588255
81.560272 16.423477 1.1544641
81.560272 17.286291 1.2538086
81.560272 18.141603 1.3566077
81.560272 18.991289 1.4626112
81.560272 19.837229 1.571569
81.560272 20.68129 1.68323
81.560272 21.525354 1.7973444
81.560272 22.37129 1.9136611
81.560272 23.220978 2.0319297
81.560272 24.07629 2.1519003
81.560272 24.939102 2.2733219
81.560272 25.811291 2.3959444
81.560272 26.694727 2.5195167
81.560272 27.59129 2.6437886
81.560272 28.502853 2.7685103
81.560272 29.43129 2.8934302
81.560272 30.378944 3.0182257
81.560272 31.350042 3.1422832
81.560272 32.349262 3.2649145
81.560272 33.38129 3.385433
81.560272 34.450821 3.5031521
81.560272 35.562538 3.6173847
81.560272 36.721138 3.7274444
81.560272 37.931293 3.832643
81.560272 39.197697 3.9322944
81.560272 40.52504 4.0257115
81.560272 41.918007 4.1122074
81.560272 43.381294 4.1910949
81.560272 44.919575 4.2616873
81.560272 46.53754 4.3232975
81.560272 48.239883 4.3752384
81.560272 50.031288 4.4168234
81.560272 51.916451 4.4473658
81.560272 53.900043 4.4661775
81.560272 55.986759 4.4725728
81.560272 58.18129 4.4658642
82.310432 -16.81871 0.071748145
82.310432 -14.624179 0.071248807
82.310432 -12.53746 0.073889226
82.310432 -10.553866 0.079753652
82.310432 -8.6687098 0.08892633
82.310432 -6.8773041 0.10149152
82.310432 -5.1749601 0.11753347
82.310432 -3.5569918 0.1371364
82.310432 -2.0187101 0.16038461
82.310432 -0.55542856 0.18736231
82.310432 0.83753967 0.21815376
82.310432 2.1648836 0.2528432
82.310432 3.4312901 0.29151493
82.310432 4.6414466 0.33425313
82.310432 5.8000393 0.38114205
82.310432 6.9117584 0.432266
82.310432 7.9812899 0.48770919
82.310432 9.0133209 0.54755586
82.310432 10.012541 0.61189032
82.310432 10.983633 0.68079668
82.310432 11.93129 0.75435942
82.310432 12.859729 0.8326093
82.310432 13.77129 0.91536331
82.310432 14.667851 1.0023856
82.310432 15.551291 1.0934403
82.310432 16.423477 1.1882907
82.310432 17.286291 1.2867013
82.310432 18.141603 1.3884354
82.310432 18.991289 1.4932572
82.310432 19.837229 1.6009307
82.310432 20.68129 1.7112193
82.310432 21.525354 1.8238876
82.310432 22.37129 1.9386988
82.310432 23.220978 2.0554171
82.310432 24.07629 2.1738062
82.310432 24.939102 2.2936301
82.310432 25.811291 2.4146531
82.310432 26.694727 2.5366383
82.310432 27.59129 2.6593499
82.310432 28.502853 2.7825522
82.310432 29.43129 2.9060085
82.310432 30.378944 3.0294101
82.310432 31.350042 3.1521599
82.310432 32.349262 3.273586
82.310432 33.38129 3.393018
82.310432 34.450821 3.5097854
82.310432 35.562538 3.6232178
82.310432 36.721138 3.7326446
82.310432 37.931293 3.837394
82.310432 39.197697 3.9367964
82.310432 40.52504 4.0301809
82.310432 41.918007 4.1168766
82.310432 43.381294 4.1962132
82.310432 44.919575 4.26752
82.310432 46.53754 4.3301253
82.310432 48.239883 4.3833599
82.310432 50.031288 4.4265523
82.310432 51.916451 4.4590325
82.310432 53.900043 4.4801288
82.310432 55.986759 4.489171
82.310432 58.18129 4.4854889
83.061523 -16.81871 0.088856094
83.061523 -14.624179 0.089240812
83.061523 -12.53746 0.092894144
83.061523 -10.553866 0.099881813
83.061523 -8.6687098 0.1102695
83.061523 -6.8773041 0.12412291
83.061523 -5.1749601 0.14150774
83.061523 -3.5569918 0.16248971
83.061523 -2.0187101 0.18713449
83.061523 -0.55542856 0.21550781
83.061523 0.83753967 0.24767533
83.061523 2.1648836 0.28370279
83.061523 3.4312901 0.32365587
83.061523 4.6414466 0.36760029
83.061523 5.8000393 0.41560167
83.061523 6.9117584 0.46772584
83.061523 7.9812899 0.52403843
83.061523 9.0133209 0.5846051
83.061523 10.012541 0.64949167
83.061523 10.983633 0.71876365
83.061523 11.93129 0.79248691
83.061523 12.859729 0.87067926
83.061523 13.77129 0.9531666
83.061523 14.667851 1.0397273
83.061523 15.551291 1.1301399
83.061523 16.423477 1.2241821
83.061523 17.286291 1.3216326
83.061523 18.141603 1.4222692
83.061523 18.991289 1.5258703
83.061523 19.837229 1.6322145
83.061523 20.68129 1.7410794
83.061523 21.525354 1.8522439
83.061523 22.37129 1.9654856
83.061523 23.220978 2.0805829
83.061523 24.07629 2.1973145
83.061523 24.939102 2.3154581
83.061523 25.811291 2.4347923
83.061523 26.694727 2.5550947
83.061523 27.59129 2.6761441
83.061523 28.502853 2.797719
83.061523 29.43129 2.9195969
83.061523 30.378944 3.0414844
83.061523 31.350042 3.1628003
83.061523 32.349262 3.2828898
83.061523 33.38129 3.4010999
83.061523 34.450821 3.5167768
83.061523 35.562538 3.6292667
83.061523 36.721138 3.7379167
83.061523 37.931293 3.842072
83.061523 39.197697 3.9410794
83.061523 40.52504 4.0342851
83.061523 41.918007 4.1210356
83.061523 43.381294 4.2006774
83.061523 44.919575 4.2725558
83.061523 46.53754 4.3360186
83.061523 48.239883 4.3904104
83.061523 50.031288 4.4350791
83.061523 51.916451 4.4693704
83.061523 53.900043 4.4926305
83.061523 55.986759 4.5042057
83.061523 58.18129 4.5034428
83.814491 -16.81871 0.10706452
83.814491 -14.624179 0.10842913
83.814491 -12.53746 0.11318593
83.814491 -10.553866 0.1213821
83.814491 -8.6687098 0.13306479
83.814491 -6.8773041 0.14828119
83.814491 -5.1749601 0.16707845
83.814491 -3.5569918 0.18950374
83.814491 -2.0187101 0.21560426
83.814491 -0.55542856 0.24542715
83.814491 0.83753967 0.27901956
83.814491 2.1648836 0.31642869
83.814491 3.4312901 0.35770172
83.814491 4.6414466 0.40288582
83.814491 5.8000393 0.45202807
83.814491 6.9117584 0.50517577
83.814491 7.9812899 0.56237602
83.814491 9.0133209 0.623676
83.814491 10.012541 0.68912286
83.814491 10.983633 0.75876373
83.814491 11.93129 0.83264589
83.814491 12.859729 0.91077411
83.814491 13.77129 0.9929831
83.814491 14.667851 1.0790656
83.814491 15.551291 1.1688142
83.814491 16.423477 1.2620211
83.814491 17.286291 1.3584794
83.814491 18.141603 1.4579809
83.814491 18.991289 1.5603186
83.814491 19.837229 1.6652851
83.814491 20.68129 1.7726725
83.814491 21.525354 1.882274
83.814491 22.37129 1.9938815
83.814491 23.220978 2.1072876
83.814491 24.07629 2.2222853
83.814491 24.939102 2.3386664
83.814491 25.811291 2.4562242
83.814491 26.694727 2.5747507
83.814491 27.59129 2.6940386
83.814491 28.502853 2.8138807
83.814491 29.43129 2.9340689
83.814491 30.378944 3.0543246
83.814491 31.350042 3.1740839
83.814491 32.349262 3.2927096
83.814491 33.38129 3.4095664
83.814491 34.450821 3.5240183
83.814491 35.562538 3.6354291
83.814491 36.721138 3.7431633
83.814491 37.931293 3.8465843
83.814491 39.197697 3.9450562
83.814491 40.52504 4.0379434
83.814491 41.918007 4.124609
83.814491 43.381294 4.2044187
83.814491 44.919575 4.2767348
83.814491 46.53754 4.3409219
83.814491 48.239883 4.3963442
83.814491 50.031288 4.4423656
83.814491 51.916451 4.4783502
83.814491 53.900043 4.5036616
83.814491 55.986759 4.5176644
83.814491 58.18129 4.5197225
84.570274 -16.81871 0.12643555
84.570274 -14.624179 0.12889174
84.570274 -12.53746 0.1348543
84.570274 -10.553866 0.14435218
84.570274 -8.6687098 0.15741435
84.570274 -6.8773041 0.17406972
84.570274 -5.1749601 0.19434725
84.570274 -3.5569918 0.21827586
84.570274 -2.0187101 0.24588451
84.570274 -0.55542856 0.27720213
84.570274 0.83753967 0.31225765
84.570274 2.1648836 0.35108003
84.570274 3.4312901 0.39369822
84.570274 4.6414466 0.44014111
84.570274 5.8000393 0.49043766
84.570274 6.9117584 0.54461688
84.570274 7.9812899 0.60270762
84.570274 9.0133209 0.66473883
84.570274 10.012541 0.73073953
84.570274 10.983633 0.80073851
84.570274 11.93129 0.87476492
84.570274 12.859729 0.95281059
84.570274 13.77129 1.0347191
84.570274 14.667851 1.1202972
84.570274 15.551291 1.209352
84.570274 16.423477 1.3016896
84.570274 17.286291 1.3971175
84.570274 18.141603 1.4954416
84.570274 18.991289 1.5964688
84.570274 19.837229 1.7000064
84.570274 20.68129 1.8058603
84.570274 21.525354 1.913838
84.570274 22.37129 2.0237455
84.570274 23.220978 2.13539
84.570274 24.07629 2.2485781
84.570274 24.939102 2.3631163
84.570274 25.811291 2.4788117
84.570274 26.694727 2.5954707
84.570274 27.59129 2.7128999
84.570274 28.502853 2.8309066
84.570274 29.43129 2.949297
84.570274 30.378944 3.0678072
84.570274 31.350042 3.1858909
84.570274 32.349262 3.3029294
84.570274 33.38129 3.4183059
84.570274 34.450821 3.5314023
84.570274 35.562538 3.6416016
84.570274 36.721138 3.7482865
84.570274 37.931293 3.8508382
84.570274 39.197697 3.9486401
84.570274 40.52504 4.0410743
84.570274 41.918007 4.1275229
84.570274 43.381294 4.2073693
84.570274 44.919575 4.2799945
84.570274 46.53754 4.3447824
84.570274 48.239883 4.401114
84.570274 50.031288 4.4483728
84.570274 51.916451 4.4859409
84.570274 53.900043 4.5132003
84.570274 55.986759 4.5295343
84.570274 58.18129 4.5343242
85.329803 -16.81871 0.14703129
85.329803 -14.624179 0.1507065
85.329803 -12.53746 0.15798886
85.329803 -10.553866 0.16888966
85.329803 -8.6687098 0.1834202
85.329803 -6.8773041 0.20159177
85.329803 -5.1749601 0.22341569
85.329803 -3.5569918 0.24890321
85.329803 -2.0187101 0.27806571
85.329803 -0.55542856 0.31091443
85.329803 0.83753967 0.34746063
85.329803 2.1648836 0.3877157
85.329803 3.4312901 0.43169087
85.329803 4.6414466 0.47939751
85.329803 5.8000393 0.53084677
85.329803 6.9117584 0.58605009
85.329803 7.9812899 0.64501876
85.329803 9.0133209 0.70776397
85.329803 10.012541 0.77429718
85.329803 10.983633 0.84462947
85.329803 11.93129 0.91877234
85.329803 12.859729 0.99670535
85.329803 13.77129 1.0782807
85.329803 14.667851 1.1633193
85.329803 15.551291 1.2516421
85.329803 16.423477 1.3430696
85.329803 17.286291 1.4374226
85.329803 18.141603 1.5345218
85.329803 18.991289 1.6341878
85.329803 19.837229 1.7362419
85.329803 20.68129 1.8405041
85.329803 21.525354 1.9467958
85.329803 22.37129 2.0549371
85.329803 23.220978 2.1647491
85.329803 24.07629 2.2760527
85.329803 24.939102 2.3886683
85.329803 25.811291 2.5024168
85.329803 26.694727 2.6171188
85.329803 27.59129 2.7325952
85.329803 28.502853 2.8486671
85.329803 29.43129 2.9651544
85.329803 30.378944 3.0818083
85.329803 31.350042 3.198101
85.329803 32.349262 3.3134327
85.329803 33.38129 3.4272058
85.329803 34.450821 3.5388215
85.329803 35.562538 3.6476815
85.329803 36.721138 3.7531881
85.329803 37.931293 3.8547413
85.329803 39.197697 3.9517438
85.329803 40.52504 4.0435967
85.329803 41.918007 4.1297016
85.329803 43.381294 4.2094607
85.329803 44.919575 4.2822742
85.329803 46.53754 4.3475447
85.329803 48.239883 4.4046736
85.329803 50.031288 4.4530621
85.329803 51.916451 4.4921122
85.329803 53.900043 4.521225
85.329803 55.986759 4.5398021
85.329803 58.18129 4.5472455
86.094025 -16.81871 0.16891444
86.094025 -14.624179 0.17395198
86.094025 -12.53746 0.18267994
86.094025 -10.553866 0.19509281
86.094025 -8.6687098 0.21118513
86.094025 -6.8773041 0.23095141
86.094025 -5.1749601 0.25438619
86.094025 -3.5569918 0.28148398
86.094025 -2.0187101 0.31223932
86.094025 -0.55542856 0.3466467
86.094025 0.83753967 0.38470069
86.094025 2.1648836 0.42639577
86.094025 3.4312901 0.47172651
86.094025 4.6414466 0.5206874
86.094025 5.8000393 0.57327288
86.094025 6.9117584 0.62947768
86.094025 7.9812899 0.68929619
86.094025 9.0133209 0.75272292
86.094025 10.012541 0.81975245
86.094025 10.983633 0.89037919
86.094025 11.93129 0.96459788
86.094025 12.859729 1.0423763
86.094025 13.77129 1.1235754
86.094025 14.667851 1.20803
86.094025 15.551291 1.2955747
86.094025 16.423477 1.3860437
86.094025 17.286291 1.4792721
86.094025 18.141603 1.5750939
86.094025 18.991289 1.6733437
86.094025 19.837229 1.7738565
86.094025 20.68129 1.8764663
86.094025 21.525354 1.9810082
86.094025 22.37129 2.0873163
86.094025 23.220978 2.195225
86.094025 24.07629 2.3045695
86.094025 24.939102 2.4151835
86.094025 25.811291 2.5269027
86.094025 26.694727 2.6395605
86.094025 27.59129 2.7529919
86.094025 28.502853 2.8670316
86.094025 29.43129 2.981514
86.094025 30.378944 3.0962045
86.094025 31.350042 3.2105942
86.094025 32.349262 3.3241036
86.094025 33.38129 3.4361544
86.094025 34.450821 3.5461681
86.094025 35.562538 3.6535661
86.094025 36.721138 3.7577703
86.094025 37.931293 3.858201
86.094025 39.197697 3.9542804
86.094025 40.52504 4.0454297
86.094025 41.918007 4.1310706
86.094025 43.381294 4.2106242
86.094025 44.919575 4.2835121
86.094025 46.53754 4.3491554
86.094025 48.239883 4.4069757
86.094025 50.031288 4.4563947
86.094025 51.916451 4.4968333
86.094025 53.900043 4.5277133
86.094025 55.986759 4.5484562
86.094025 58.18129 4.5584826
86.863861 -16.81871 0.19214682
86.863861 -14.624179 0.19870582
86.863861 -12.53746 0.2090169
86.863861 -10.553866 0.22305897
86.863861 -8.6687098 0.2408109
86.863861 -6.8773041 0.26225162
86.863861 -5.1749601 0.28736001
86.863861 -3.5569918 0.31611499
86.863861 -2.0187101 0.34849548
86.863861 -0.55542856 0.38448033
86.863861 0.83753967 0.42404845
86.863861 2.1648836 0.46717882
86.863861 3.4312901 0.51385027
86.863861 4.6414466 0.56404173
86.863861 5.8000393 0.61773199
86.863861 6.9117584 0.67490011
86.863861 7.9812899 0.73552501
86.863861 9.0133209 0.79958546
86.863861 10.012541 0.86706042
86.863861 10.983633 0.93792868
86.863861 11.93129 1.0121694
86.863861 12.859729 1.0897396
86.863861 13.77129 1.1705089
86.863861 14.667851 1.2543255
86.863861 15.551291 1.3410379
86.863861 16.423477 1.4304936
86.863861 17.286291 1.522541
86.863861 18.141603 1.617028
86.863861 18.991289 1.7138028
86.863861 19.837229 1.8127136
86.863861 20.68129 1.9136081
86.863861 21.525354 2.016335
86.863861 22.37129 2.1207416
86.863861 23.220978 2.2266762
86.863861 24.07629 2.3339875
86.863861 24.939102 2.442523
86.863861 25.811291 2.5521312
86.863861 26.694727 2.6626594
86.863861 27.59129 2.7739563
86.863861 28.502853 2.88587
86.863861 29.43129 2.9982483
86.863861 30.378944 3.1108718
86.863861 31.350042 3.2232504
86.863861 32.349262 3.3348255
86.863861 33.38129 3.4450395
86.863861 34.450821 3.5533342
86.863861 35.562538 3.659152
86.863861 36.721138 3.761935
86.863861 37.931293 3.8611245
86.863861 39.197697 3.9561632
86.863861 40.52504 4.0464926
86.863861 41.918007 4.1315551
86.863861 43.381294 4.2107925
86.863861 44.919575 4.2836471
86.863861 46.53754 4.3495603
86.863861 48.239883 4.4079747
86.863861 50.031288 4.4583321
86.863861 51.916451 4.5000749
86.863861 53.900043 4.5326443
86.863861 55.986759 4.5554829
86.863861 58.18129 4.5680327
87.640274 -16.81871 0.2167912
87.640274 -14.624179 0.22504663
87.640274 -12.53746 0.23709016
87.640274 -10.553866 0.2528865
87.640274 -8.6687098 0.27240041
87.640274 -6.8773041 0.29559657
87.640274 -5.1749601 0.32243967
87.640274 -3.5569918 0.35289448
87.640274 -2.0187101 0.3869257
87.640274 -0.55542856 0.42449805
87.640274 0.83753967 0.46557623
87.640274 2.1648836 0.51012498
87.640274 3.4312901 0.55810899
87.640274 4.6414466 0.60949296
87.640274 5.8000393 0.66424161
87.640274 6.9117584 0.72231978
87.640274 7.9812899 0.78369206
87.640274 9.0133209 0.84832317
87.640274 10.012541 0.91617787
87.640274 10.983633 0.98722076
87.640274 11.93129 1.0614167
87.640274 12.859729 1.1387134
87.640274 13.77129 1.2189887
87.640274 14.667851 1.3021044
87.640274 15.551291 1.3879219
87.640274 16.423477 1.476302
87.640274 17.286291 1.5671066
87.640274 18.141603 1.6601965
87.640274 18.991289 1.7554331
87.640274 19.837229 1.8526779
87.640274 20.68129 1.9517919
87.640274 21.525354 2.0526369
87.640274 22.37129 2.1550734
87.640274 23.220978 2.2589631
87.640274 24.07629 2.3641675
87.640274 24.939102 2.4705477
87.640274 25.811291 2.577965
87.640274 26.694727 2.6862807
87.640274 27.59129 2.795356
87.640274 28.502853 2.9050524
87.640274 29.43129 3.0152309
87.640274 30.378944 3.1256866
87.640274 31.350042 3.2359498
87.640274 32.349262 3.3454826
87.640274 33.38129 3.4537492
87.640274 34.450821 3.5602129
87.640274 35.562538 3.6643367
87.640274 36.721138 3.7655847
87.640274 37.931293 3.8634195
87.640274 39.197697 3.9573047
87.640274 40.52504 4.0467038
87.640274 41.918007 4.1310797
87.640274 43.381294 4.2098966
87.640274 44.919575 4.2826171
87.640274 46.53754 4.3487048
87.640274 48.239883 4.4076233
87.640274 50.031288 4.4588356
87.640274 51.916451 4.5018058
87.640274 53.900043 4.535996
87.640274 55.986759 4.5608702
87.640274 58.18129 4.575892
88.424187 -16.81871 0.24290965
88.424187 -14.624179 0.25305226
88.424187 -12.53746 0.26698929
88.424187 -10.553866 0.28467301
88.424187 -8.6687098 0.30605567
88.424187 -6.8773041 0.33108947
88.424187 -5.1749601 0.35972673
88.424187 -3.5569918 0.39191964
88.424187 -2.0187101 0.4276205
88.424187 -0.55542856 0.46678153
88.424187 0.83753967 0.50935501
88.424187 2.1648836 0.55529314
88.424187 3.4312901 0.60454822
88.424187 4.6414466 0.65707248
88.424187 5.8000393 0.71281815
88.424187 6.9117584 0.77173752
88.424187 7.9812899 0.83378279
88.424187 9.0133209 0.89890629
88.424187 10.012541 0.96706021
88.424187 10.983633 1.0381968
88.424187 11.93129 1.1122683
88.424187 12.859729 1.1892141
88.424187 13.77129 1.268921
88.424187 14.667851 1.3512634
88.424187 15.551291 1.4361155
88.424187 16.423477 1.5233511
88.424187 17.286291 1.6128447
88.424187 18.141603 1.70447
88.424187 18.991289 1.7981014
88.424187 19.837229 1.8936132
88.424187 20.68129 1.9908792
88.424187 21.525354 2.0897737
88.424187 22.37129 2.1901708
88.424187 23.220978 2.2919443
88.424187 24.07629 2.394969
88.424187 24.939102 2.4991183
88.424187 25.811291 2.6042671
88.424187 26.694727 2.7102888
88.424187 27.59129 2.8170576
88.424187 28.502853 2.9244485
88.424187 29.43129 3.0323343
88.424187 30.378944 3.1405253
88.424187 31.350042 3.2485719
88.424187 32.349262 3.3559587
88.424187 33.38129 3.4621713
88.424187 34.450821 3.5666957
88.424187 35.562538 3.6690171
88.424187 36.721138 3.7686214
88.424187 37.931293 3.8649931
88.424187 39.197697 3.957618
88.424187 40.52504 4.0459819
88.424187 41.918007 4.12957
88.424187 43.381294 4.2078686
88.424187 44.919575 4.2803617
88.424187 46.53754 4.3465352
88.424187 48.239883 4.4058752
88.424187 50.031288 4.4578667
88.424187 51.916451 4.5019956
88.424187 53.900043 4.5377464
88.424187 55.986759 4.5646057
88.424187 58.18129 4.582058
89.216522 -16.81871 0.2705642
89.216522 -14.624179 0.28280056
89.216522 -12.53746 0.29880387
89.216522 -10.553866 0.31851596
89.216522 -8.6687098 0.34187856
89.216522 -6.8773041 0.36883351
89.216522 -5.1749601 0.3993226
89.216522 -3.5569918 0.43328756
89.216522 -2.0187101 0.47067022
89.216522 -0.55542856 0.51141238
89.216522 0.83753967 0.55545574
89.216522 2.1648836 0.6027422
89.216522 3.4312901 0.6532135
89.216522 4.6414466 0.70681143
89.216522 5.8000393 0.76347768
89.216522 6.9117584 0.82315427
89.216522 7.9812899 0.88578278
89.216522 9.0133209 0.95130503
89.216522 10.012541 1.0196629
89.216522 10.983633 1.090798
89.216522 11.93129 1.1646523
89.216522 12.859729 1.2411585
89.216522 13.77129 1.3202119
89.216522 14.667851 1.4016992
89.216522 15.551291 1.4855072
89.216522 16.423477 1.5715222
89.216522 17.286291 1.6596309
89.216522 18.141603 1.7497195
89.216522 18.991289 1.8416747
89.216522 19.837229 1.9353832
89.216522 20.68129 2.0307312
89.216522 21.525354 2.1276057
89.216522 22.37129 2.2258928
89.216522 23.220978 2.325479
89.216522 24.07629 2.4262512
89.216522 24.939102 2.5280955
89.216522 25.811291 2.6308992
89.216522 26.694727 2.7345476
89.216522 27.59129 2.8389282
89.216522 28.502853 2.9439275
89.216522 29.43129 3.0494316
89.216522 30.378944 3.1552639
89.216522 31.350042 3.2609968
89.216522 32.349262 3.366137
89.216522 33.38129 3.4701941
89.216522 34.450821 3.5726757
89.216522 35.562538 3.6730902
89.216522 36.721138 3.770947
89.216522 37.931293 3.8657527
89.216522 39.197697 3.9570165
89.216522 40.52504 4.0442467
89.216522 41.918007 4.1269517
89.216522 43.381294 4.2046399
89.216522 44.919575 4.2768188
89.216522 46.53754 4.3429976
89.216522 48.239883 4.4026837
89.216522 50.031288 4.4553866
89.216522 51.916451 4.5006142
89.216522 53.900043 4.5378747
89.216522 55.986759 4.5666757
89.216522 58.18129 4.5865264
90.018242 -16.81871 0.29981762
90.018242 -14.624179 0.31437016
90.018242 -12.53746 0.33262435
90.018242 -10.553866 0.35451382
90.018242 -8.6687098 0.37997216
90.018242 -6.8773041 0.40893298
90.018242 -5.1749601 0.44132993
90.018242 -3.5569918 0.47709656
90.018242 -2.0187101 0.51616651
90.018242 -0.55542856 0.55847341
90.018242 0.83753967 0.60395086
90.018242 2.1648836 0.6525324
90.018242 3.4312901 0.70415175
90.018242 4.6414466 0.75874245
90.018242 5.8000393 0.81623811
90.018242 6.9117584 0.87657237
90.018242 7.9812899 0.93967885
90.018242 9.0133209 1.0054911
90.018242 10.012541 1.0739428
90.018242 10.983633 1.1449674
90.018242 11.93129 1.2184987
90.018242 12.859729 1.2944646
90.018242 13.77129 1.3727689
90.018242 14.667851 1.4533104
90.018242 15.551291 1.5359875
90.018242 16.423477 1.6206986
90.018242 17.286291 1.7073424
90.018242 18.141603 1.7958169
90.018242 18.991289 1.8860208
90.018242 19.837229 1.9778527
90.018242 20.68129 2.0712106
90.018242 21.525354 2.1659937
90.018242 22.37129 2.2620995
90.018242 23.220978 2.359427
90.018242 24.07629 2.4578748
90.018242 24.939102 2.5573409
90.018242 25.811291 2.6577241
90.018242 26.694727 2.7589228
90.018242 27.59129 2.8608351
90.018242 28.502853 2.9633601
90.018242 29.43129 3.0663955
90.018242 30.378944 3.1697791
90.018242 31.350042 3.2731044
90.018242 32.349262 3.3759022
90.018242 33.38129 3.477705
90.018242 34.450821 3.5780449
90.018242 35.562538 3.6764536
90.018242 36.721138 3.7724636
90.018242 37.931293 3.8656058
90.018242 39.197697 3.9554129
90.018242 40.52504 4.0414166
90.018242 41.918007 4.1231489
90.018242 43.381294 4.2001419
90.018242 44.919575 4.2719269
90.018242 46.53754 4.3380365
90.018242 48.239883 4.3980026
90.018242 50.031288 4.4513569
90.018242 51.916451 4.4976315
90.018242 53.900043 4.5363579
90.018242 55.986759 4.5670686
90.018242 58.18129 4.5892949
90.830269 -16.81871 0.33073172
90.830269 -14.624179 0.34783861
90.830269 -12.53746 0.36853996
90.830269 -10.553866 0.39276376
90.830269 -8.6687098 0.42043799
90.830269 -6.8773041 0.45149067
90.830269 -5.1749601 0.4858498
90.830269 -3.5569918 0.52344334
90.830269 -2.0187101 0.56419939
90.830269 -0.55542856 0.60804588
90.830269 0.83753967 0.65491074
90.830269 2.1648836 0.70472217
90.830269 3.4312901 0.75740802
90.830269 4.6414466 0.81289631
90.830269 5.8000393 0.87111503
90.830269 6.9117584 0.93199223
90.830269 7.9812899 0.99545592
90.830269 9.0133209 1.0614341
90.830269 10.012541 1.1298547
90.830269 10.983633 1.2006458
90.830269 11.93129 1.2737353
90.830269 12.859729 1.3490484
90.830269 13.77129 1.4264977
90.830269 14.667851 1.505993
90.830269 15.551291 1.5874445
90.830269 16.423477 1.6707616
90.830269 17.286291 1.7558546
90.830269 18.141603 1.8426328
90.830269 18.991289 1.9310062
90.830269 19.837229 2.020885
90.830269 20.68129 2.1121786
90.830269 21.525354 2.204797
90.830269 22.37129 2.29865
90.830269 23.220978 2.3936472
90.830269 24.07629 2.4896991
90.830269 24.939102 2.5867147
90.830269 25.811291 2.6846046
90.830269 26.694727 2.783278
90.830269 27.59129 2.8826449
90.830269 28.502853 2.9826155
90.830269 29.43129 3.0830991
90.830269 30.378944 3.1839468
90.830269 31.350042 3.2847745
90.830269 32.349262 3.3851373
90.830269 33.38129 3.4845922
90.830269 34.450821 3.5826957
90.830269 35.562538 3.6790037
90.830269 36.721138 3.7730732
90.830269 37.931293 3.8644598
90.830269 39.197697 3.9527202
90.830269 40.52504 4.0374103
90.830269 41.918007 4.1180873
90.830269 43.381294 4.1943069
90.830269 44.919575 4.2656255
90.830269 46.53754 4.3315992
90.830269 48.239883 4.3917847
90.830269 50.031288 4.4457383
90.830269 51.916451 4.4930167
90.830269 53.900043 4.5331755
90.830269 55.986759 4.5657711
90.830269 58.18129 4.5903602
91.653557 -16.81871 0.36336929
91.653557 -14.624179 0.38328466
91.653557 -12.53746 0.40664124
91.653557 -10.553866 0.43336433
91.653557 -8.6687098 0.46337911
91.653557 -6.8773041 0.49661088
91.653557 -5.1749601 0.53298485
91.653557 -3.5569918 0.57242632
91.653557 -2.0187101 0.61486048
91.653557 -0.55542856 0.66021264
91.653557 0.83753967 0.70840794
91.653557 2.1648836 0.7593717
91.653557 3.4312901 0.81302923
91.653557 4.6414466 0.86930567
91.653557 5.8000393 0.92812622
91.653557 6.9117584 0.9894163
91.653557 7.9812899 1.0531011
91.653557 9.0133209 1.1191058
91.653557 10.012541 1.1873556
91.653557 10.983633 1.2577759
91.653557 11.93129 1.330292
91.653557 12.859729 1.4048282
91.653557 13.77129 1.4813058
91.653557 14.667851 1.5596455
91.653557 15.551291 1.6397684
91.653557 16.423477 1.7215942
91.653557 17.286291 1.8050445
91.653557 18.141603 1.8900391
91.653557 18.991289 1.976499
91.653557 19.837229 2.0643449
91.653557 20.68129 2.1534972
91.653557 21.525354 2.2438769
91.653557 22.37129 2.3354042
91.653557 23.220978 2.4279997
91.653557 24.07629 2.5215843
91.653557 24.939102 2.6160784
91.653557 25.811291 2.7114031
91.653557 26.694727 2.8074782
91.653557 27.59129 2.9042249
91.653557 28.502853 3.0015638
91.653557 29.43129 3.0994153
91.653557 30.378944 3.1976435
91.653557 31.350042 3.2958872
91.653557 32.349262 3.3937266
91.653557 33.38129 3.4907439
91.653557 34.450821 3.5865204
91.653557 35.562538 3.6806381
91.653557 36.721138 3.7726784
91.653557 37.931293 3.8622222
91.653557 39.197697 3.9488513
91.653557 40.52504 4.0321474
91.653557 41.918007 4.1116915
91.653557 43.381294 4.1870666
91.653557 44.919575 4.2578521
91.653557 46.53754 4.3236308
91.653557 48.239883 4.3839836
91.653557 50.031288 4.4384928
91.653557 51.916451 4.4867396
91.653557 53.900043 4.5283051
91.653557 55.986759 4.5627708
91.653557 58.18129 4.5897183
92.489029 -16.81871 0.39779243
92.489029 -14.624179 0.42078611
92.489029 -12.53746 0.44701776
92.489029 -10.553866 0.47641304
92.489029 -8.6687098 0.50889748
92.489029 -6.8773041 0.54439682
92.489029 -5.1749601 0.58283669
92.489029 -3.5569918 0.62414259
92.489029 -2.0187101 0.66824025
92.489029 -0.55542856 0.71505529
92.489029 0.83753967 0.76451331
92.489029 2.1648836 0.81654
92.489029 3.4312901 0.87106091
92.489029 4.6414466 0.92800176
92.489029 5.8000393 0.987288
92.489029 6.9117584 1.0488455
92.489029 7.9812899 1.1125997
92.489029 9.0133209 1.1784765
92.489029 10.012541 1.2464011
92.489029 10.983633 1.3162993
92.489029 11.93129 1.3880969
92.489029 12.859729 1.4617205
92.489029 13.77129 1.5370995
92.489029 14.667851 1.6141649
92.489029 15.551291 1.6928477
92.489029 16.423477 1.7730783
92.489029 17.286291 1.8547879
92.489029 18.141603 1.9379069
92.489029 18.991289 2.022366
92.489029 19.837229 2.1080964
92.489029 20.68129 2.1950283
92.489029 21.525354 2.2830932
92.489029 22.37129 2.372221
92.489029 23.220978 2.4623432
92.489029 24.07629 2.5533903
92.489029 24.939102 2.6452928
92.489029 25.811291 2.7379818
92.489029 26.694727 2.831388
92.489029 27.59129 2.925442
92.489029 28.502853 3.0200748
92.489029 29.43129 3.1152172
92.489029 30.378944 3.2107456
92.489029 31.350042 3.3063223
92.489029 32.349262 3.4015536
92.489029 33.38129 3.4960477
92.489029 34.450821 3.589412
92.489029 35.562538 3.6812537
92.489029 36.721138 3.7711809
92.489029 37.931293 3.8587999
92.489029 39.197697 3.9437194
92.489029 40.52504 4.0255461
92.489029 41.918007 4.1038876
92.489029 43.381294 4.1783519
92.489029 44.919575 4.2485461
92.489029 46.53754 4.3140769
92.489029 48.239883 4.3745532
92.489029 50.031288 4.4295812
92.489029 51.916451 4.4787698
92.489029 53.900043 4.5217247
92.489029 55.986759 4.5580549
92.489029 58.18129 4.5873666
93.337616 -16.81871 0.43406299
93.337616 -14.624179 0.46042067
93.337616 -12.53746 0.48975891
93.337616 -10.553866 0.52200717
93.337616 -8.6687098 0.55709493
93.337616 -6.8773041 0.59495151
93.337616 -5.1749601 0.63550645
93.337616 -3.5569918 0.67868906
93.337616 -2.0187101 0.72442889
93.337616 -0.55542856 0.77265531
93.337616 0.83753967 0.82329774
93.337616 2.1648836 0.87628567
93.337616 3.4312901 0.93154848
93.337616 4.6414466 0.98901558
93.337616 5.8000393 1.0486164
93.337616 6.9117584 1.1102805
93.337616 7.9812899 1.1739372
93.337616 9.0133209 1.2395159
93.337616 10.012541 1.3069462
93.337616 10.983633 1.3761572
93.337616 11.93129 1.4470786
93.337616 12.859729 1.5196416
93.337616 13.77129 1.5937846
93.337616 14.667851 1.6694477
93.337616 15.551291 1.7465713
93.337616 16.423477 1.8250954
93.337616 17.286291 1.9049606
93.337616 18.141603 1.9861066
93.337616 18.991289 2.0684738
93.337616 19.837229 2.1520028
93.337616 20.68129 2.2366331
93.337616 21.525354 2.3223057
93.337616 22.37129 2.4089601
93.337616 23.220978 2.4965367
93.337616 24.07629 2.5849762
93.337616 24.939102 2.6742182
93.337616 25.811291 2.7642033
93.337616 26.694727 2.8548715
93.337616 27.59129 2.9461629
93.337616 28.502853 3.0380182
93.337616 29.43129 3.1303771
93.337616 30.378944 3.223129
93.337616 31.350042 3.3159597
93.337616 32.349262 3.4085023
93.337616 33.38129 3.5003917
93.337616 34.450821 3.5912621
93.337616 35.562538 3.6807475
93.337616 36.721138 3.7684827
93.337616 37.931293 3.8541012
93.337616 39.197697 3.9372373
93.337616 40.52504 4.0175257
93.337616 41.918007 4.0946002
93.337616 43.381294 4.1680956
93.337616 44.919575 4.2376456
93.337616 46.53754 4.3028841
93.337616 48.239883 4.3634462
93.337616 50.031288 4.4189653
93.337616 51.916451 4.4690766
93.337616 53.900043 4.5134134
93.337616 55.986759 4.5516105
93.337616 58.18129 4.583302
94.200279 -16.81871 0.47224399
94.200279 -14.624179 0.50226718
94.200279 -12.53746 0.53495544
94.200279 -10.553866 0.57024556
94.200279 -8.6687098 0.60807461
94.200279 -6.8773041 0.6483795
94.200279 -5.1749601 0.69109714
94.200279 -3.5569918 0.73616439
94.200279 -2.0187101 0.78351837
94.200279 -0.55542856 0.83309585
94.200279 0.83753967 0.88483381
94.200279 2.1648836 0.93866926
94.200279 3.4312901 0.99453908
94.200279 4.6414466 1.0523802
94.200279 5.8000393 1.1121294
94.200279 6.9117584 1.1737239
94.200279 7.9812899 1.2371006
94.200279 9.0133209 1.3021963
94.200279 10.012541 1.368948
94.200279 10.983633 1.4372925
94.200279 11.93129 1.5071669
94.200279 12.859729 1.5785102
94.200279 13.77129 1.651269
94.200279 14.667851 1.7253925
94.200279 15.551291 1.8008295
94.200279 16.423477 1.8775289
94.200279 17.286291 1.9554398
94.200279 18.141603 2.0345106
94.200279 18.991289 2.1146908
94.200279 19.837229 2.1959291
94.200279 20.68129 2.2781742
94.200279 21.525354 2.3613753
94.200279 22.37129 2.4454811
94.200279 23.220978 2.5304406
94.200279 24.07629 2.6162028
94.200279 24.939102 2.7027164
94.200279 25.811291 2.7899303
94.200279 26.694727 2.8777938
94.200279 27.59129 2.9662552
94.200279 28.502853 3.055264
94.200279 29.43129 3.1447687
94.200279 30.378944 3.2346706
94.200279 31.350042 3.3246794
94.200279 32.349262 3.4144566
94.200279 33.38129 3.5036638
94.200279 34.450821 3.5919633
94.200279 35.562538 3.6790166
94.200279 36.721138 3.7644861
94.200279 37.931293 3.8480325
94.200279 39.197697 3.9293182
94.200279 40.52504 4.0080047
94.200279 41.918007 4.0837545
94.200279 43.381294 4.1562285
94.200279 44.919575 4.2250891
94.200279 46.53754 4.2899976
94.200279 48.239883 4.3506165
94.200279 50.031288 4.4066067
94.200279 51.916451 4.4576306
94.200279 53.900043 4.5033493
94.200279 55.986759 4.5434256
94.200279 58.18129 4.5775204
95.077927 -16.81871 0.51239699
95.077927 -14.624179 0.54640299
95.077927 -12.53746 0.5826962
95.077927 -10.553866 0.62122506
95.077927 -8.6687098 0.66193789
95.077927 -6.8773041 0.7047832
95.077927 -5.1749601 0.74970943
95.077927 -3.5569918 0.79666495
95.077927 -2.0187101 0.84559828
95.077927 -0.55542856 0.89645773
95.077927 0.83753967 0.94919175
95.077927 2.1648836 1.0037489
95.077927 3.4312901 1.0600774
95.077927 4.6414466 1.1181258
95.077927 5.8000393 1.1778425
95.077927 6.9117584 1.239176
95.077927 7.9812899 1.3020747
95.077927 9.0133209 1.3664869
95.077927 10.012541 1.4323611
95.077927 10.983633 1.4996458
95.077927 11.93129 1.5682894
95.077927 12.859729 1.6382418
95.077927 13.77129 1.7094581
95.077927 14.667851 1.7818953
95.077927 15.551291 1.8555104
95.077927 16.423477 1.9302597
95.077927 17.286291 2.0061007
95.077927 18.141603 2.0829895
95.077927 18.991289 2.1608829
95.077927 19.837229 2.2397385
95.077927 20.68129 2.3195124
95.077927 21.525354 2.4001617
95.077927 22.37129 2.481643
95.077927 23.220978 2.5639131
95.077927 24.07629 2.646929
95.077927 24.939102 2.7306473
95.077927 25.811291 2.8150251
95.077927 26.694727 2.9000187
95.077927 27.59129 2.9855852
95.077927 28.502853 3.0716817
95.077927 29.43129 3.1582644
95.077927 30.378944 3.2452459
95.077927 31.350042 3.3323612
95.077927 32.349262 3.4192998
95.077927 33.38129 3.5057521
95.077927 34.450821 3.5914083
95.077927 35.562538 3.6759584
95.077927 36.721138 3.759093
95.077927 37.931293 3.8405018
95.077927 39.197697 3.9198749
95.077927 40.52504 3.9969027
95.077927 41.918007 4.0712752
95.077927 43.381294 4.142683
95.077927 44.919575 4.2108159
95.077927 46.53754 4.2753639
95.077927 48.239883 4.3360171
95.077927 50.031288 4.3924656
95.077927 51.916451 4.4444003
95.077927 53.900043 4.4915109
95.077927 55.986759 4.5334873
95.077927 58.18129 4.5700197
95.971527 -16.81871 0.55458504
95.971527 -14.624179 0.59290713
95.971527 -12.53746 0.6330722
95.971527 -10.553866 0.67504448
95.971527 -8.6687098 0.71878815
95.971527 -6.8773041 0.76426739
95.971527 -5.1749601 0.81144649
95.971527 -3.5569918 0.86028951
95.971527 -2.0187101 0.9107607
95.971527 -0.55542856 0.96282423
95.971527 0.83753967 1.0164443
95.971527 2.1648836 1.0715851
95.971527 3.4312901 1.1282108
95.971527 4.6414466 1.1862857
95.971527 5.8000393 1.2457738
95.971527 6.9117584 1.3066393
95.971527 7.9812899 1.3688467
95.971527 9.0133209 1.4323598
95.971527 10.012541 1.497143
95.971527 10.983633 1.5631604
95.971527 11.93129 1.6303762
95.971527 12.859729 1.6987548
95.971527 13.77129 1.7682596
95.971527 14.667851 1.8388547
95.971527 15.551291 1.9105041
95.971527 16.423477 1.9831712
95.971527 17.286291 2.0568204
95.971527 18.141603 2.1314149
95.971527 18.991289 2.2069187
95.971527 19.837229 2.2832961
95.971527 20.68129 2.3605106
95.971527 21.525354 2.4385259
95.971527 22.37129 2.5173061
95.971527 23.220978 2.5968146
95.971527 24.07629 2.6770158
95.971527 24.939102 2.7578731
95.971527 25.811291 2.8393505
95.971527 26.694727 2.9214118
95.971527 27.59129 3.0040207
95.971527 28.502853 3.0871415
95.971527 29.43129 3.1707375
95.971527 30.378944 3.2547319
95.971527 31.350042 3.3388853
95.971527 32.349262 3.4229162
95.971527 33.38129 3.5065444
95.971527 34.450821 3.589489
95.971527 35.562538 3.6714697
95.971527 36.721138 3.7522058
95.971527 37.931293 3.8314164
95.971527 39.197697 3.9088206
95.971527 40.52504 3.9841383
95.971527 41.918007 4.0570884
95.971527 43.381294 4.1273909
95.971527 44.919575 4.1947641
95.971527 46.53754 4.2589278
95.971527 48.239883 4.3196015
95.971527 50.031288 4.3765044
95.971527 51.916451 4.4293561
95.971527 53.900043 4.4778757
95.971527 55.986759 4.5217824
95.971527 58.18129 4.5607953
96.881996 -16.81871 0.5988701
96.881996 -14.624179 0.64185715
96.881996 -12.53746 0.6861726
96.881996 -10.553866 0.73180109
