# .PCD v0.7 - Point Cloud Data file format
VERSION 0.7
FIELDS x y z
SIZE 4 4 4
TYPE F F F
COUNT 1 1 1
WIDTH 1445
HEIGHT 1
VIEWPOINT 0 0 0 1 0 0 0
POINTS 1445
DATA ascii
-19.146553 -185.94507 -0.97385013
24.97002 -177.82635 0.15364003
-19.110479 -185.93744 -0.9893626
32.524059 -165.40753 0.80683106
23.365768 -169.41757 -0.16194588
23.262316 -169.45438 -0.15541536
25.02005 -177.66264 0.24269396
24.930088 -177.7272 0.43237066
24.699612 -177.61429 0.14764804
24.689808 -177.61618 0.14819457
-3.3477812 -186.53148 -0.84598565
-7.8047223 -185.76878 -0.7380774
24.96862 -177.72099 0.41138175
52.000881 -180.17175 -0.61463147
52.382233 -186.05701 0.1156938
24.959185 -177.68742 0.35209048
24.920155 -177.64813 0.17021826
25.068604 -177.4597 -0.63158405
24.883856 -177.51103 -0.49344108
24.797295 -177.48358 -0.0019003203
24.866596 -177.41064 0.029900827
24.879513 -177.4653 0.069743231
52.322624 -186.32446 -0.60586607
25.098829 -177.94673 0.15921584
24.987556 -177.99626 -0.15892284
24.907827 -178.05855 0.20137274
-3.7620118 -185.27914 -0.78002685
24.98732 -178.04347 0.21613716
-19.753841 -185.37137 -0.97935021
-19.753841 -185.37137 -0.97935021
25.056145 -177.99034 -0.57645392
24.98839 -177.97321 0.011295618
24.967182 -177.98228 0.14671649
24.887697 -177.99748 0.13204253
52.384499 -186.52614 -0.64180046
24.970272 -177.99045 0.17562084
24.967182 -177.98228 0.14671649
52.39304 -186.41064 -0.61426759
52.342102 -186.30698 -0.12757388
25.771736 -182.06209 2.198524
-3.6718812 -185.33473 -0.97585821
-7.8986373 -185.9538 -0.97438234
-11.353709 -187.3824 -0.98862684
-11.415268 -187.37546 -0.987409
-11.353709 -187.3824 -0.98862684
25.012178 -177.97382 0.12824993
24.976467 -177.97766 0.20665516
24.903299 -177.98331 0.15296446
22.378986 -169.49434 -0.20983416
24.976864 -177.9883 0.17839849
52.405308 -186.50668 -0.56917858
52.341801 -186.36174 -0.12579496
24.998861 -177.81046 0.23871434
24.95887 -177.84401 0.32806179
24.898617 -177.84512 0.34032053
-11.056399 -186.77924 -0.8888976
-19.294786 -185.15034 -0.99779904
24.953615 -177.81587 0.32709333
52.017574 -180.66052 -0.91922665
52.341076 -186.44455 -0.41065595
32.750107 -165.79558 1.1774615
32.622749 -165.87318 1.3179492
34.051514 -176.11169 -0.044323646
34.038231 -176.04713 0.60177237
33.946461 -176.06758 0.505189
25.048565 -178.10007 0.12616327
25.011648 -178.11961 0.32005098
24.950115 -178.12158 0.30377498
22.623507 -169.74602 -0.065995976
22.529291 -169.77902 -0.0601505
23.191441 -174.58511 -0.96713006
23.112858 -175.32182 1.0990639
25.011648 -178.11961 0.32005098
23.668684 -168.73135 0.53944737
25.047407 -177.99681 0.25314835
24.979 -177.97588 0.37966463
24.938862 -177.98381 0.36264578
24.795078 -177.81372 0.16154207
-10.822437 -186.27924 -0.96559656
-19.297615 -185.47488 -0.93972999
-19.285847 -185.4753 -0.91253203
24.967867 -177.96788 0.38936943
23.166759 -175.25539 0.91051483
22.99683 -174.85417 1.8219898
32.730755 -165.90387 0.99995255
30.877516 -161.46719 1.1069467
32.660259 -165.97858 0.95921439
33.466885 -174.25299 0.81616378
25.102789 -178.18053 0.40270793
25.003977 -178.18726 0.43589208
24.994143 -178.18901 0.4363856
22.245205 -169.2764 -0.5304848
24.092628 -178.87825 1.6003577
23.974316 -178.89801 1.6037896
23.944738 -178.90295 1.6046475
23.08259 -175.21693 1.3175353
22.985428 -175.24034 1.3209388
-7.8722525 -183.4973 -0.95621383
-9.2135115 -186.04674 -0.99475592
-19.826658 -185.51146 -0.95200437
24.994143 -178.18901 0.4363856
23.974316 -178.89801 1.6037896
-9.2135115 -186.04674 -0.99475592
52.346714 -187.18335 -0.40708613
24.145964 -168.42801 0.38246605
25.054216 -177.98265 0.16740996
24.957235 -177.9763 0.27665177
24.949547 -177.98697 0.28708726
22.534143 -169.3987 -0.044295233
22.277111 -169.55319 -0.98616588
23.128681 -175.55031 1.575981
23.053972 -175.51744 1.4084992
24.949547 -177.98697 0.28708726
23.128681 -175.55031 1.575981
-22.604767 -185.58105 -0.95559043
32.760212 -165.89963 1.3594751
32.657425 -165.91455 1.2937076
32.615452 -165.89899 1.1467875
24.122379 -168.52786 0.2843627
23.340805 -168.53293 0.5921188
25.069792 -177.94408 0.32011956
24.969313 -177.94165 0.35300541
24.948233 -177.92407 0.4007616
22.775673 -169.995 0.17785871
-9.0623426 -186.36295 -0.96597773
-10.409324 -186.1235 -0.99054122
32.614388 -165.92171 1.1930002
24.948233 -177.92407 0.4007616
-22.152512 -186.32365 -0.9347207
-22.353945 -185.9321 -0.85748065
30.808781 -161.35049 1.31487
32.617439 -165.908 1.2279696
24.349949 -171.44273 -0.87610507
24.934847 -177.89653 0.36608142
-11.086824 -186.71523 -0.98865104
-13.7421 -185.91611 -0.9931255
-14.072586 -184.8083 -0.99988359
-14.163583 -184.82141 -0.99416518
30.808781 -161.35049 1.31487
32.617439 -165.908 1.2279696
24.934847 -177.89653 0.36608142
32.659008 -165.94131 1.1875517
32.319519 -170.03957 0.086964518
24.217901 -168.36005 0.10936685
-3.7106137 -185.3707 -0.7098183
-11.158385 -186.58968 -0.9606784
-11.214082 -186.61165 -0.98423892
-20.376516 -186.88503 -0.90759218
32.659008 -165.94131 1.1875517
-11.158385 -186.58968 -0.9606784
24.427422 -170.13503 -0.2761761
24.970711 -178.03505 0.29317012
-18.576578 -185.26378 -0.99802065
-20.349211 -185.51154 -0.95852244
-20.351622 -185.5099 -0.93924564
24.962246 -177.99953 0.25354823
-20.351622 -185.5099 -0.93924564
-21.510792 -185.67296 -0.9329645
23.606226 -168.70638 0.35730493
22.608845 -169.42085 -0.15066759
24.818733 -177.58777 0.08289291
30.986452 -161.5504 0.81101936
32.656422 -165.7863 0.74548894
32.603706 -165.85872 0.91966981
32.566021 -165.87207 0.92103201
24.086065 -167.92134 0.1665912
23.633715 -168.57037 0.40974721
25.382307 -177.93924 2.1529408
25.313402 -177.95151 2.1541929
24.992706 -177.89262 0.10574319
24.960653 -178.01958 0.21877208
24.914009 -178.04802 0.20329835
24.803806 -177.92064 0.47749558
-10.708289 -184.63501 -0.99652642
-20.352362 -185.46994 -0.98398042
-20.367304 -185.47 -0.96794766
-20.414053 -185.46538 -0.85064322
25.313402 -177.95151 2.1541929
24.960653 -178.01958 0.21877208
-10.961846 -186.86246 -0.8841663
-12.728333 -187.0696 -0.94262707
-20.367304 -185.47 -0.96794766
24.760857 -177.89081 -0.25717932
23.72654 -179.05327 1.3092223
-3.8859339 -185.92102 -0.9017961
24.860291 -177.73051 0.19697449
32.537224 -165.67024 1.0388408
24.908121 -177.7007 0.24110557
30.820923 -161.39674 1.2547752
32.539463 -165.73769 1.1280771
33.308102 -170.40796 -0.52137387
23.562531 -168.6454 0.49440709
21.757166 -168.5753 -0.79045314
23.029819 -175.09109 1.4130274
-4.066884 -181.71942 -0.92848444
-9.6805611 -180.93326 -0.96282744
-9.773448 -180.97313 -0.95679152
-10.220081 -184.61613 -0.97212827
-10.225438 -184.62097 -0.90575117
-18.970034 -184.82086 -0.95168394
23.656475 -168.61147 0.48967552
24.881927 -177.80946 0.26081619
30.84281 -161.40091 1.1986439
32.549709 -165.71111 1.0818003
24.025644 -168.29201 0.3959232
23.684658 -168.60129 0.48825604
23.707365 -168.69548 0.90103853
30.731451 -161.10564 1.3298178
32.529671 -165.61275 1.173171
-18.20437 -185.04097 -0.94791126
-18.42605 -184.24571 -0.95598996
24.951767 -177.6971 0.00021088081
24.902657 -177.70604 0.0030703831
30.68186 -160.98291 1.0407065
32.562771 -165.71278 0.81646919
-19.116121 -185.54349 -0.92512685
-22.549469 -185.98068 -0.96467537
30.843615 -161.12289 1.4186399
32.66806 -165.73637 1.2181084
24.058798 -168.88451 0.060061745
23.990011 -168.95734 0.26966104
23.89576 -168.99036 0.27477863
25.047626 -177.67612 0.15646745
24.919035 -177.66049 -0.24814834
24.899309 -177.70346 0.14561428
23.20616 -175.28958 1.6825939
23.15749 -175.30095 1.6839527
23.07962 -175.31915 1.6861267
24.209679 -174.29579 -0.0249677
24.944098 -177.69731 0.057269242
30.769266 -161.18167 1.3545027
32.589283 -165.78951 1.1534941
24.910078 -177.70107 0.16407855
32.580765 -165.73872 1.1817253
24.279543 -167.94485 0.59331816
23.6367 -168.62956 0.44465721
25.352518 -177.91957 1.7245207
25.235201 -177.8474 2.7962277
24.962082 -177.75142 0.307652
24.907965 -177.76373 0.20568572
24.834103 -177.79472 -0.11359367
23.016928 -175.09064 1.5386757
22.919273 -175.10269 1.6156106
-20.302963 -185.61601 -0.93894112
-20.297733 -185.59676 -0.89586407
-20.375408 -185.60765 -0.82685834
24.838995 -177.7601 0.075534701
25.304127 -177.83519 2.7957993
24.926052 -177.74017 0.24218181
23.031965 -175.00751 1.6755294
24.357454 -169.49164 -0.086529866
24.262835 -169.52348 -0.080800518
24.203653 -169.54424 -0.12586668
23.82476 -168.66621 0.87185395
25.393984 -177.62401 1.8950059
25.223871 -177.74615 2.5711179
25.063599 -177.76596 0.48167714
24.957796 -177.81007 0.24911687
24.9174 -177.82835 0.1944218
24.83746 -177.87936 -0.11434522
-16.43959 -184.34624 -0.95723754
24.958702 -177.80943 0.26814348
24.940268 -177.82263 0.25991261
30.863037 -161.31331 1.5073794
32.668041 -165.93124 1.3320084
30.825291 -161.38098 1.4430814
32.610363 -165.95279 1.2773237
24.160259 -168.13486 0.33559021
25.638882 -178.40681 2.0596125
25.530359 -178.42465 2.061743
24.95437 -177.87096 0.4614155
23.816099 -178.84859 2.0719559
23.779377 -178.91559 2.2416518
-8.1814785 -184.60851 -0.96428591
-9.1490374 -185.21263 -0.977979
-9.1772776 -185.21182 -0.96520466
-12.863869 -183.48817 -0.87071437
-14.208372 -186.83812 -0.91033483
-19.256546 -185.31464 -0.97900945
-19.136566 -185.92223 -0.95551997
-19.295441 -185.3065 -0.91041952
24.97278 -177.85774 0.46967244
24.964615 -177.86887 0.47043905
23.806231 -178.85017 2.072154
23.92695 -168.6384 1.6370597
25.369768 -178.03137 3.0024951
22.836182 -169.79239 1.6963053
23.056931 -175.40707 2.6465147
2.5123041 -182.27663 -0.99289429
-5.9719181 -186.3528 -0.49644423
-8.1228886 -183.8644 -0.98338282
-8.4122467 -183.83902 -0.85675561
-8.5214357 -185.03487 -0.86495149
-8.6651077 -185.04855 -0.92476958
-8.8810339 -184.12 -0.85259086
-9.6060162 -187.17577 -0.66195369
-10.513175 -184.54372 -0.67621857
-10.569908 -184.6246 -0.99466765
-10.602413 -184.61072 -0.8041324
-10.66809 -184.54462 -0.72589958
-10.990025 -184.63763 -0.8908096
-11.765616 -184.34129 -0.93432814
-11.861058 -184.36444 -0.91426212
-11.90085 -185.90906 -0.8341856
-12.826173 -186.63179 -0.80500227
-15.856763 -186.38922 -0.89386898
-16.725008 -186.44769 -0.92178708
23.832735 -168.6718 1.6396976
-10.708613 -184.57072 -0.78904915
-16.761309 -186.45905 -0.90638512
-8.4626513 -183.86362 -0.87186158
-10.933582 -184.62491 -0.9534561
-11.895532 -184.37292 -0.89006728
-16.751326 -186.44226 -0.90446138
25.364168 -178.03589 1.8008759
25.236071 -178.05783 1.8039575
25.055742 -177.99722 1.9188811
21.159918 -167.66945 -0.70842719
23.059956 -172.93239 3.5030334
-2.5718365 -182.30832 -0.68068433
-7.7343025 -184.80568 -0.78589123
-12.106544 -184.49382 -0.77265131
-15.821719 -186.28355 -0.71491152
-15.938809 -186.30363 -0.762043
-17.448116 -185.56076 -0.90999103
-17.685072 -185.54388 -0.81459355
-19.702147 -185.06209 -0.86296439
30.92392 -161.44217 2.6418624
32.678467 -165.94759 2.4693897
-12.204738 -184.47734 -0.95411503
-15.970796 -186.30492 -0.79880244
-5.5880527 -184.91737 -0.92607421
-5.597858 -184.91837 -0.92437881
-8.6127377 -185.52408 -0.80733007
-9.46663 -183.30125 -0.99110025
-12.064582 -185.07431 -0.76788241
-13.19817 -184.22955 -0.96380043
-15.288204 -185.89285 -0.96468288
-15.49525 -186.1086 -0.8489635
-15.565949 -186.12354 -0.87973952
-5.5880527 -184.91737 -0.92607421
-5.597858 -184.91837 -0.92437881
-8.6127377 -185.52408 -0.80733007
-9.4889498 -183.29681 -0.94413364
-15.49525 -186.1086 -0.8489635
32.68206 -165.91347 2.0639181
32.659554 -165.90807 2.0976934
-10.777204 -184.79254 -0.93638355
-14.818311 -184.68529 -0.92196214
-16.159891 -185.26465 -0.89221323
-16.201487 -185.28596 -0.93361819
-16.18331 -185.28326 -0.94184518
25.069262 -178.02492 0.68691272
25.04203 -178.03851 0.70756972
-10.900156 -186.88179 -0.71790689
-11.565506 -185.61153 -0.94686228
-12.878366 -183.90771 -0.9787913
-13.109508 -186.41653 -0.87633723
-13.143612 -186.41418 -0.88820511
-17.954149 -183.88602 -0.9476437
-18.018785 -184.99562 -0.85656255
-18.169188 -186.26659 -0.98415875
-19.105993 -185.74261 -0.92112648
25.117685 -178.27956 2.2295558
25.043938 -178.05972 0.90850872
-18.169188 -186.26659 -0.98415875
25.650782 -181.56409 -0.90621465
25.254162 -178.02888 0.48682696
25.108866 -178.0735 0.47555941
25.04179 -178.04758 0.43908259
25.001846 -178.06816 0.59387147
-12.657862 -185.79102 -0.94775534
-12.72659 -185.80017 -0.93619442
-12.956926 -186.92242 -0.886594
-13.128652 -186.92184 -0.87228394
-13.163145 -186.92932 -0.84590173
-13.586539 -186.98207 -0.92878336
-18.924976 -185.3793 -0.96958601
-20.091257 -185.7654 -0.98195505
-20.181112 -186.26642 -0.93676656
-20.23155 -186.29358 -0.97895014
24.929441 -178.07249 0.54935396
-20.181112 -186.26642 -0.93676656
25.033583 -177.93117 0.358392
25.011686 -177.95059 0.46477979
25.470564 -181.78618 0.99243414
24.942553 -177.97612 0.63013107
-13.936897 -184.8992 -0.99290991
-17.685287 -182.72054 -0.99308538
-17.175127 -184.55717 -0.94648921
25.011686 -177.95059 0.46477979
-17.685287 -182.72054 -0.99308538
-25.038628 -186.78058 -0.96342701
32.672146 -165.92366 1.2596829
25.0697 -178.17104 0.47003415
25.058891 -178.19809 0.57599819
-12.017856 -185.31183 -0.96733636
-12.027478 -185.31905 -0.96750766
-12.733128 -184.3967 -0.83146071
-14.95466 -185.29434 -0.99183953
-19.897058 -184.44217 -0.99455208
-20.338184 -184.81097 -0.94283479
32.684769 -166.01131 1.3866379
-12.027478 -185.31905 -0.96750766
-14.878964 -185.27979 -0.97819436
32.624454 -166.02141 1.5098836
24.990322 -177.88589 0.3507435
-12.950583 -184.73369 -0.97414571
-14.622282 -185.17865 -0.99002123
-20.010384 -185.75174 -0.94949007
24.980829 -177.89804 0.32338849
-22.015427 -185.11147 -0.97595876
32.594509 -165.83488 1.3324761
22.663353 -169.59206 0.18894987
22.630322 -169.5648 0.1424699
-12.679964 -184.48566 -0.94477308
-15.835134 -184.89639 -0.97619653
-18.900423 -183.62831 -0.94125116
22.626703 -169.57434 0.20855412
23.168926 -174.97333 -0.98034227
-12.685592 -184.48563 -0.92600834
-22.135172 -185.70612 -0.92264605
24.814365 -177.94635 -0.062615529
-14.777686 -185.43324 -0.99747109
-15.695277 -185.30728 -0.9876368
-16.142517 -184.50082 -0.97212213
24.909996 -177.77318 0.18420088
-14.840425 -184.68816 -0.99845499
-14.197984 -182.8111 -0.9379555
24.905725 -177.98958 0.50059032
24.965107 -178.08426 0.58529639
-13.142983 -183.39362 -0.99965012
-16.15048 -184.52649 -0.98832625
24.970108 -178.13641 0.52088171
22.244299 -171.60626 -0.99736929
-21.907791 -185.81952 -0.97303575
30.922358 -161.67612 1.3837867
32.560528 -165.89601 1.2174076
24.942671 -177.97179 0.34875694
-19.638615 -184.99388 -0.99994987
22.550648 -169.78479 -0.17775638
-20.207302 -185.58882 -0.97519982
22.620234 -169.90831 -0.10460806
24.207163 -167.83768 -0.067550294
25.048832 -177.85748 -0.62183475
32.272217 -165.69432 0.8172999
22.323452 -169.63454 -0.4049935
32.429802 -165.84062 1.0571891
32.342495 -165.80638 0.91685951
32.3909 -165.87527 0.91968733
32.438698 -165.79443 0.74137408
24.858515 -177.65462 0.62012166
23.424067 -170.2252 -0.44882676
24.842468 -177.91472 0.31308138
-10.022797 -182.25993 -0.9866218
23.414757 -170.02644 -0.50952452
24.837864 -177.91548 0.93094218
23.665333 -170.01228 -0.2370033
2.8240888 -180.71825 -0.99588662
-3.8700721 -179.69867 -0.94910693
-6.7759013 -182.50822 -0.98112744
-6.8781247 -182.52866 -0.97554815
-7.7063975 -182.80327 -0.88226265
-7.9546108 -182.79344 -0.87627673
-8.2353086 -181.68794 -0.99608111
-8.2710114 -181.63747 -0.99530923
32.433666 -165.87453 1.4855125
24.875708 -178.00531 0.67864442
3.6676676 -180.75084 -0.99243003
0.30359063 -179.75005 -0.85560268
-0.61328018 -180.22568 -0.98984212
-2.2949038 -182.55688 -0.98391616
-2.3501449 -182.55804 -0.99645406
-6.3553009 -180.86009 -0.98559231
-6.4752774 -180.88335 -0.87735009
-4.1633749 -181.27068 -0.93070942
30.95175 -162.25481 1.5720477
32.421825 -165.82707 1.7236973
25.207775 -178.06247 1.8031158
22.804731 -174.75868 -0.93635738
22.787912 -174.76527 -0.81002295
-3.0374911 -180.93713 -0.93264383
-3.1379285 -180.95798 -0.965693
-3.1573234 -180.96565 -0.96513826
-8.7031927 -181.85172 -0.93036783
-8.7466154 -181.86322 -0.90834141
22.778221 -174.76755 -0.80907196
-3.1648431 -180.96352 -0.95253021
-4.6616998 -181.16621 -0.96158886
-7.5180445 -181.13571 -0.97480005
-8.3810053 -181.6879 -0.99556839
-9.6162167 -182.32675 -0.91918159
-9.6515684 -182.33415 -0.92415595
32.388226 -165.66924 1.4541439
32.350983 -165.70883 1.4943682
32.388226 -165.66924 1.4541439
23.511826 -168.49892 0.42626357
23.36022 -169.86331 -0.47044528
22.514055 -172.06323 -0.98938572
9.7895756 -180.27225 -0.95417279
23.36022 -169.86331 -0.47044528
9.7895756 -180.27225 -0.95417279
-10.862389 -181.82579 -0.98099571
24.913124 -177.5907 1.0383096
22.750395 -169.68668 0.55512393
22.731667 -169.69359 0.55638707
22.647394 -169.72466 0.56207108
-6.0107813 -180.9761 -0.9824937
-6.0208817 -180.97931 -0.98177683
1.9129539 -178.46971 -0.91374832
-3.4249065 -180.15016 -0.96722168
-6.0627213 -180.97133 -0.9685896
22.67889 -169.61035 0.27389672
23.170044 -175.05199 1.3003843
7.9224849 -180.28888 -0.99267834
-5.1083422 -180.16121 -0.98796034
23.15905 -175.0573 1.2605001
-3.3144016 -180.24959 -0.97716433
-12.432238 -182.92917 -0.9885183
24.545206 -177.95142 0.43500575
-11.888677 -183.69072 -0.98082405
31.670034 -169.86555 0.85088044
23.240837 -169.86525 -0.48298445
23.203402 -169.87886 -0.4793357
24.781769 -177.81737 0.84562635
24.730701 -177.82674 0.81513476
24.673035 -177.83273 0.8520261
5.173203 -180.31834 -0.95372921
5.1244812 -180.31519 -0.93748885
5.0553184 -180.33414 -0.98331708
3.2708912 -178.68381 -0.85049385
2.5350385 -178.69449 -0.99432176
2.351002 -179.68645 -0.99008626
2.1808026 -181.52357 -0.84245861
31.681938 -169.84984 1.2126372
23.240837 -169.86525 -0.48298445
24.730701 -177.82674 0.81513476
-6.373323 -181.14067 -0.99704456
-7.5808325 -181.8428 -0.9811222
-9.1568794 -182.27208 -0.96330363
23.046543 -175.22539 2.1099994
-7.0172997 -180.23509 -0.96190161
-6.6189227 -181.27109 -0.94752371
-8.5814667 -182.19736 -0.97244722
-8.6576347 -182.20514 -0.93751818
21.946676 -168.07359 -0.018839393
22.892969 -170.48422 0.020563116
21.873472 -168.10516 -0.012201857
22.817759 -170.5107 0.027117148
21.809418 -168.1328 -0.0063940138
22.751951 -170.53384 0.032851927
33.144482 -167.55815 1.12201
33.035969 -167.53474 1.2395849
33.022011 -167.51875 1.2888522
32.934547 -167.57787 1.2444247
32.317093 -170.97897 0.71072423
24.273836 -169.99931 0.28987068
24.148691 -170.13646 0.53003234
24.10923 -170.15279 0.49256507
23.990637 -170.18886 0.58817601
23.922674 -171.00853 -0.48782116
23.727554 -170.9621 -0.27129018
23.636 -170.96239 -0.1190103
23.594196 -170.94392 -0.044959042
23.49704 -171.78351 0.096923605
1.7788374 -179.06856 -0.95166963
33.022011 -167.51875 1.2888522
24.10923 -170.15279 0.49256507
23.594196 -170.94392 -0.044959042
-8.2149868 -181.28307 -0.99486089
33.31855 -168.01627 1.2658831
33.233322 -168.06082 1.4030182
33.189167 -168.07983 1.4628898
33.129147 -168.09305 1.4316598
24.562933 -169.52303 -0.86403334
24.534159 -169.51483 -0.90367025
24.557348 -170.03114 0.61558884
24.534883 -170.05081 0.65188819
24.435932 -170.09183 0.26880434
24.615166 -170.95528 0.33684844
24.322315 -170.60318 0.51348579
24.2684 -170.61652 0.58368075
24.221937 -170.63069 0.60683137
24.066313 -171.70998 -0.66941822
24.037783 -171.71875 -0.66638428
23.884411 -171.71828 -0.20177092
23.850441 -171.67766 0.025850425
23.786171 -171.67578 0.14055347
23.429388 -171.84198 0.1563516
23.32464 -171.87437 0.16523443
33.189167 -168.07983 1.4628898
24.534159 -169.51483 -0.90367025
24.534883 -170.05081 0.65188819
24.2684 -170.61652 0.58368075
24.066313 -171.70998 -0.66941822
23.850441 -171.67766 0.025850425
23.32464 -171.87437 0.16523443
-0.68312109 -178.27571 -0.90692466
-5.1551151 -181.25978 -0.9845733
25.706482 -148.94397 0.61067504
24.938414 -150.47888 0.80109382
24.924099 -150.55782 0.73465061
24.324259 -149.91641 2.7522936
25.023191 -150.79137 0.51542348
24.890326 -152.75595 0.30039936
24.87904 -152.82903 0.37365374
14.429574 -161.86012 -0.862692
14.337839 -161.88797 -0.92397022
14.28457 -161.88252 -0.98035765
12.485971 -163.69473 -0.81276977
11.401877 -164.64804 -0.65948296
10.619104 -164.26137 -0.93548685
10.288743 -164.32751 -0.79834723
9.9188375 -164.07925 -0.94259399
11.024996 -165.5163 -0.78613675
9.6771326 -164.07704 -0.77904755
9.273324 -164.37953 -0.82444054
9.3021593 -164.50717 -0.78305447
9.5927544 -165.13092 -0.93289316
8.6306877 -165.019 -0.79301244
8.589138 -165.13129 -0.82521087
8.5760727 -165.15448 -0.85686344
8.0665932 -165.78798 -0.9321776
7.8729506 -165.84752 -0.99924898
7.9062257 -166.65839 -0.77958637
7.7953882 -166.72772 -0.88487518
7.9455981 -167.16283 -0.84399939
6.371666 -166.51715 -0.9629612
5.0197315 -167.73763 -0.9586665
4.979898 -167.74594 -0.92737305
5.7224865 -168.69077 -0.96164513
3.9125168 -169.89667 -0.73898578
3.8838897 -169.946 -0.80102956
5.1040549 -171.70026 -0.6272226
3.3975816 -170.14839 -0.79141772
2.7566855 -170.17719 -0.75925159
3.6008489 -171.68912 -0.92689067
3.505846 -171.76595 -0.87837285
3.5275283 -171.94295 -0.7759394
2.9375315 -171.84932 -0.82296741
2.9063325 -171.87482 -0.81944865
2.0069039 -172.00252 -0.80800903
1.9277389 -172.06886 -0.80876154
2.1905355 -172.89157 -0.74667037
1.8306556 -173.53963 -0.90842038
0.26370528 -173.23123 -0.95692623
0.3970142 -173.24304 -0.6287356
0.29766047 -173.30585 -0.67462158
-0.65886307 -175.42691 -0.8880384
-1.346603 -175.39928 -0.81912708
-2.0664027 -174.8757 -0.95506364
-1.4724122 -175.53244 -0.84874785
-1.4524826 -175.44682 -0.65793329
-2.1172092 -174.8916 -0.94177008
-1.5936358 -175.58875 -0.64978057
-2.5897284 -176.78778 -0.793805
-2.6447749 -177.05769 -0.85126448
-2.4120333 -178.3911 -0.64833313
24.893654 -152.89601 0.18925685
14.337839 -161.88797 -0.92397022
12.486198 -163.7159 -0.9084028
10.288743 -164.32751 -0.79834723
9.3021593 -164.50717 -0.78305447
9.5877752 -165.12619 -0.87240702
5.9550748 -167.64584 -0.92664129
2.6613092 -170.89659 -0.79832143
3.4790781 -171.95912 -0.80806863
2.1670263 -172.89166 -0.65718418
-1.521827 -173.17525 -0.71240801
-1.4269632 -173.68721 -0.78294849
-1.6399258 -173.88873 -0.74667329
-1.8112162 -174.20128 -0.72325385
-1.4891497 -175.50108 -0.74441475
-3.071243 -176.13457 -0.74700278
-3.0371406 -176.33612 -0.73299766
-4.5462155 -176.66949 -0.820499
-4.5008354 -177.34755 -0.74549389
27.652086 -146.02092 -0.53104538
26.756773 -146.43745 0.80865133
14.482464 -160.98531 -0.8863048
8.5027523 -163.0264 -0.96417409
8.9084473 -166.76802 -0.9245106
8.897213 -166.77556 -0.94410574
7.8021102 -165.67072 -0.9278301
7.0599451 -165.22621 -0.88389444
6.1837592 -166.65227 -0.93680537
6.0553617 -166.98669 -0.92880929
6.0006809 -167.05293 -0.84015602
4.4068627 -167.78375 -0.79698765
3.5362754 -169.59976 -0.84438038
3.7290699 -170.55757 -0.94199187
2.0179646 -169.64725 -0.86692256
1.8386075 -170.58063 -0.69431853
2.5565817 -171.6212 -0.80859768
2.6123466 -171.99565 -0.85033637
2.078737 -171.83803 -0.92623138
2.0725861 -171.94684 -0.77775472
0.68409044 -171.53606 -0.99618113
0.56797487 -171.51883 -0.75664341
0.035777692 -172.91364 -0.80873686
-0.013613137 -172.94856 -0.65667975
-0.050045196 -173.06032 -0.65202588
0.027360512 -173.17558 -0.65123522
-0.040640965 -173.23157 -0.63154203
-0.62006921 -172.77151 -0.61996317
-0.78120512 -173.08479 -0.69671839
-0.47622213 -174.52902 -0.74470162
-0.52383018 -174.56866 -0.77315599
-0.6359427 -174.54803 -0.80537927
-1.2130233 -174.30496 -0.69344914
-1.7194937 -174.03288 -0.82051122
-1.678269 -175.22758 -0.90545344
-1.7242937 -175.26976 -0.8725763
-2.3029625 -175.59528 -0.78207105
26.68413 -146.37613 0.61864567
6.1281915 -168.21117 -0.85690987
4.4068627 -167.78375 -0.79698765
1.9669998 -169.8188 -0.71220583
-0.46363032 -172.58289 -0.67566139
0.027360512 -173.17558 -0.65123522
-0.52383018 -174.56866 -0.77315599
4.6473379 -163.43513 -0.97410393
2.8324313 -165.21584 -0.86790049
2.3580189 -165.88087 -0.97445661
0.66157609 -169.32712 -0.98457527
0.74502587 -170.0627 -0.77259254
-1.6712304 -172.44901 -0.91161048
-1.7426666 -172.53012 -0.91948706
-1.7975453 -172.5742 -0.80925012
-1.3055617 -173.54485 -0.77617931
-1.7591434 -169.78506 -0.82786751
-4.9123325 -175.11534 -0.83751887
-7.9556499 -180.43875 -0.94467378
5.8361731 -147.28419 -0.36660916
6.1154151 -148.78577 -0.80826735
6.8610196 -149.96918 -0.46536514
2.5124884 -152.34402 -0.55318421
2.4786365 -152.43611 -0.16700751
1.1648288 -153.63948 -0.66089004
2.6785619 -155.02562 -0.38936153
2.7032468 -155.13904 -0.49962842
1.2041951 -155.2066 -0.76542157
1.9386498 -156.68153 -0.54022247
1.9170994 -156.78453 -0.55630988
0.11886758 -157.48384 -0.68532127
-0.48008639 -159.44165 -0.62029374
-0.51655072 -159.55159 -0.58373529
-2.3196907 -160.15508 -0.82426608
-2.3467169 -160.21115 -0.82784122
0.180062 -161.28763 -0.72997725
-1.3848432 -163.53145 -0.54444098
-2.1744456 -163.80702 -0.63237393
-2.2558749 -163.92873 -0.52689087
-1.5123944 -164.36609 -0.62042063
-1.1854551 -165.04373 -0.70582014
-2.3167312 -164.73299 -0.81630653
-1.4410474 -165.68733 -0.68867838
-1.8265791 -165.93893 -0.64251542
-3.0693817 -165.71069 -0.95594782
-1.9277172 -166.10831 -0.69525987
-3.1079597 -165.86685 -0.85008329
-2.0036395 -166.2527 -0.59777415
-1.9830467 -166.38194 -0.62988549
-2.87046 -166.76945 -0.61889338
-2.8814399 -166.77972 -0.54412621
-2.4884868 -167.49622 -0.55273706
-3.5722611 -167.02997 -0.44893152
-3.7247591 -167.95299 -0.46717548
-3.6717525 -168.02309 -0.44781384
-3.7625923 -169.10077 -0.62023807
-3.7972941 -169.20296 -0.5971393
-3.8009651 -171.00394 -0.57550901
-4.5948133 -171.00748 -0.79170877
-3.9943917 -171.71315 -0.57065451
-4.0448117 -171.75392 -0.52519965
-4.0853505 -171.85625 -0.50687879
-4.7905293 -171.7364 -0.66368562
-5.0615473 -172.78557 -0.7094205
-5.0432239 -173.88063 -0.56387252
-5.1405797 -174.08153 -0.47561812
-29.80139 -156.98193 -0.56793642
-28.953667 -156.95592 -0.76542848
-25.675776 -161.06587 -0.75080359
-23.473591 -162.27283 -0.82108563
-23.255291 -162.46898 -0.73229796
-22.179039 -166.61539 -0.67521626
-18.995974 -166.75981 -0.79406756
-19.945055 -167.4561 -0.57065111
-19.240877 -167.08827 -0.84238189
-19.068615 -169.17322 -0.7057125
-19.05348 -169.2285 -0.87888151
-19.05723 -169.1515 -0.62323678
-18.174828 -172.43927 -0.69440067
-17.69397 -172.01805 -0.57840019
-18.120909 -172.49817 -0.64430517
-17.670254 -172.53445 -0.80000609
-17.351149 -172.1832 -0.74799949
-17.557638 -172.60851 -0.72002226
-17.251287 -172.27214 -0.66983247
-16.448086 -171.92743 -0.54477328
-15.258862 -171.92491 -0.64695317
-15.83127 -172.56502 -0.64430207
-14.99106 -172.09711 -0.62933362
-16.120016 -173.39592 -0.71435583
-22.64106 -165.63008 -0.56540811
-22.176664 -166.61592 -0.68607259
-16.313065 -172.0905 -0.69718313
-14.978654 -172.10094 -0.66212493
-11.417027 -177.74608 -0.79559553
-25.720337 -161.00627 -0.72637659
-24.063112 -161.17174 -0.99135667
-24.116686 -161.13507 -0.58323294
-22.167871 -166.62914 -0.66071862
-19.191921 -167.16177 -0.77647698
-16.439869 -171.88754 -0.67516607
-15.218342 -171.92665 -0.69583368
-14.065412 -173.42705 -0.60749918
-11.318065 -177.86961 -0.78970194
-43.229237 -147.38148 -0.40840992
-29.287586 -156.33948 -0.64396048
-31.931286 -161.7932 -0.7982803
-28.091415 -165.50691 -0.53066123
-22.079666 -161.34901 -0.83843422
-20.072525 -169.31512 -0.63219464
-19.878304 -170.47278 -0.72698271
-19.763191 -170.56599 -0.70013344
-19.749609 -171.48201 -0.49458224
-18.656891 -171.89784 -0.71748465
-18.308889 -171.50017 -0.65251052
-18.191051 -171.95761 -0.48405632
-18.099039 -172.04364 -0.45192316
-17.372778 -171.98492 -0.62262309
-17.343966 -172.17276 -0.79641896
-17.329918 -172.18169 -0.78073078
-17.224466 -172.37828 -0.61771411
-17.694664 -174.00542 -0.58611506
-17.625412 -174.0713 -0.48430622
-15.165577 -172.76498 -0.54369408
-16.071659 -174.17039 -0.51417273
-14.706906 -174.82436 -0.5995928
-15.11442 -175.58586 -0.61830527
-15.044773 -175.65891 -0.62716979
-15.051378 -175.70923 -0.64093453
-14.962719 -175.78139 -0.65702295
-14.748849 -175.90013 -0.68894207
-14.567646 -175.66856 -0.65631306
-13.84072 -175.67468 -0.68383932
-14.064514 -176.00769 -0.71012294
-20.311876 -169.25407 -0.64315283
-17.37916 -172.06029 -0.61211592
-22.836143 -167.02124 -0.57700485
-10.373873 -178.73557 -0.68539006
-9.0706987 -179.33539 -0.79013836
-43.199623 -147.39139 -0.51816076
-19.740818 -171.58853 -0.72434986
-17.332233 -172.18716 -0.64311808
-11.929241 -178.12775 -0.75551814
-53.1745 -156.59357 -0.47069857
-52.943642 -160.06444 -0.67614073
-52.854458 -160.37523 -0.72651988
-54.214123 -163.65808 -0.90631962
-52.825111 -160.3831 -0.59088999
-54.149136 -163.68347 -0.90070796
-52.750946 -160.38925 -0.58331734
-49.728378 -165.8551 -0.88482273
-49.15237 -167.14824 -0.80391568
-46.487831 -168.76511 -0.94839197
-46.316734 -171.43628 -0.90130079
-42.542725 -165.61095 -0.88019902
-39.131638 -165.56496 -0.6523152
-40.170181 -167.81941 -0.8872425
-39.007301 -165.60255 -0.62388468
-40.060493 -167.88826 -0.86196464
-38.299068 -166.27162 -0.71663195
-37.555603 -170.33969 -0.80745637
-38.185009 -172.99748 -0.90118581
-38.088692 -173.04016 -0.84966189
-35.459198 -167.06577 -0.8572309
-35.454414 -167.26105 -0.64859325
-36.334484 -171.81686 -0.75376505
-36.18787 -171.86395 -0.85297453
-35.050705 -170.06433 -0.71990848
-34.958244 -170.10641 -0.8032366
-33.719334 -171.3949 -0.60852462
-33.569839 -171.41699 -0.65140545
-33.322254 -171.66058 -0.77897274
-33.799675 -173.15379 -0.50226104
-33.158722 -171.54478 -0.83358443
-33.082676 -171.60141 -0.76816779
-33.013329 -171.69391 -0.68061984
-32.267643 -171.07025 -0.69841009
-32.629486 -172.28394 -0.43847775
-32.436756 -173.60919 -0.60483825
-32.334759 -173.6432 -0.65034473
-31.151012 -170.996 -0.6844691
-31.017679 -172.07286 -0.68229425
-30.937241 -172.11137 -0.66940033
-30.943161 -172.31544 -0.74809587
-28.504116 -172.75352 -0.6677168
-28.385078 -172.81657 -0.6217407
-26.865202 -172.27908 -0.87744653
-27.40564 -174.09459 -0.87182212
-27.105608 -175.04544 -0.774553
-23.246639 -173.0714 -0.68703371
-23.83099 -174.12581 -0.5219183
-21.895267 -174.60251 -0.76413959
-21.848642 -174.62988 -0.68858606
-22.12759 -175.54234 -0.47879195
-22.567265 -176.94171 -0.85262257
-22.496988 -176.89139 -0.63850886
-22.015471 -175.57135 -0.53066903
-22.378338 -176.91789 -0.71364582
-21.908913 -175.62961 -0.60899454
-22.277786 -176.94652 -0.71968836
-21.813835 -175.67142 -0.6135121
-21.934469 -176.78116 -0.68819124
-19.83984 -176.40608 -0.5633471
-19.77356 -176.42619 -0.58720249
-19.314209 -175.83244 -0.51776093
-19.480787 -176.7308 -0.75355101
-19.361107 -176.7934 -0.67993969
-19.337772 -176.79935 -0.68992573
-19.577559 -177.56409 -0.53217465
-19.053083 -176.78145 -0.52347553
-18.957714 -176.82565 -0.52700692
-18.641247 -177.20021 -0.66830277
-16.60606 -178.13521 -0.65697938
-16.543005 -178.15315 -0.65927708
-16.484627 -178.16829 -0.67514223
-15.276365 -176.66228 -0.50520051
-15.316077 -177.68233 -0.63539189
-15.111233 -177.28404 -0.58705419
-15.246107 -177.75696 -0.60801011
-15.123713 -177.81047 -0.66503012
-50.011654 -164.59943 -0.63727957
-39.069363 -165.57542 -0.65037173
-40.128162 -167.87706 -0.8962
-40.298023 -167.92696 -0.84560138
-33.585865 -171.58707 -0.70917439
-32.24641 -170.95683 -0.50767666
-21.986582 -171.89426 -0.32515267
-22.651447 -172.99359 -0.4777891
-15.230833 -176.6123 -0.53024447
-13.584383 -178.48427 -0.68079591
-46.5429 -168.76422 -0.92585182
-40.221489 -167.8703 -0.91528028
-40.63829 -169.8203 -0.73278242
-36.995842 -169.0168 -0.68021083
-33.525402 -171.43579 -0.63496566
-33.196049 -171.52577 -0.82432884
-33.025028 -171.61897 -0.76417977
-27.391602 -174.14211 -0.76078159
-25.703554 -174.52588 -0.71099794
-15.81491 -178.731 -0.72629595
-55.672489 -173.85588 -0.85811597
-55.622253 -173.87901 -0.89777219
-53.009106 -172.09338 -0.39870757
-51.464825 -166.94237 -0.46381101
-49.35334 -173.52412 -0.86055678
-49.021214 -173.42551 -0.79901338
-46.825367 -168.20903 -0.38209021
-46.726948 -168.26361 -0.50636983
-46.631004 -170.91699 -0.58750194
-46.624046 -170.95888 -0.45173895
-46.545303 -171.02975 -0.3893708
-46.716446 -172.9324 -0.43842405
-46.47699 -172.83315 -0.65823811
-46.699986 -173.87314 -0.72936869
-46.577553 -173.85744 -0.79350013
-44.389301 -170.90527 -0.68924803
-44.109318 -173.41637 -0.82626194
-43.831867 -173.56567 -0.65431261
-43.744862 -173.55664 -0.67715788
-42.31567 -169.96172 -0.44813609
-42.18129 -173.63637 -0.59761435
-40.115601 -169.94661 -0.61591423
-39.813599 -169.79341 -0.405967
-40.664688 -175.47571 -0.72886056
-40.552601 -175.20683 -0.69785959
-40.507828 -175.21272 -0.65057194
-40.399952 -175.15332 -0.58705729
-39.171352 -173.07205 -0.63858616
-39.553398 -174.81891 -0.23122215
-38.816238 -172.61375 -0.7435081
-38.88258 -174.10266 -0.55622977
-39.310265 -176.96695 -0.58979863
-38.649403 -173.72522 -0.37918001
-39.185436 -176.99977 -0.74140537
-38.522598 -173.74629 -0.53632575
-38.37566 -174.26205 -0.61810929
-38.370216 -174.21768 -0.201105
-38.316097 -174.27559 -0.79263216
-37.649208 -174.43109 -0.94771528
-37.012451 -172.59988 -0.63977593
-37.562809 -174.63225 -0.79863763
-37.573753 -175.42862 -0.69821745
-37.092903 -173.45729 -0.55686599
-36.946945 -176.22003 -0.35027376
-36.833969 -176.20976 -0.42112541
-36.201542 -174.39429 -0.72366518
-35.846436 -174.99931 -0.72173327
-35.653469 -174.97185 -0.55787069
-35.628887 -174.98534 -0.45115331
-34.426285 -172.75969 -0.37495941
-34.296593 -172.8038 -0.42405713
-34.16143 -172.77733 -0.3281891
-34.004883 -173.68678 -0.48437274
-33.915844 -173.74815 -0.50336629
-33.82523 -173.81329 -0.54182351
-34.101536 -179.48947 -0.83704168
-33.797417 -177.18321 -0.72473431
-33.691978 -177.2216 -0.79149038
-33.404503 -178.62918 -0.76743966
-33.109798 -176.77707 -0.66784722
-33.305725 -178.66417 -0.77684206
-33.009293 -176.79605 -0.67652726
-31.643389 -173.39265 -0.75429112
-32.521084 -177.04005 -0.88551199
-32.089443 -175.36952 -0.61901635
-32.48735 -177.19586 -0.41771695
-32.442547 -177.2541 -0.79695249
-32.290592 -177.2755 -0.67307538
-32.028362 -176.51144 -0.67876601
-32.001747 -176.52257 -0.66580421
-31.933142 -176.54576 -0.60592246
-31.058239 -176.25923 -0.52810615
-31.039093 -176.25166 -0.57291174
-31.080248 -177.21425 -0.68880826
-30.928476 -177.09785 -0.58213013
-30.82596 -177.12897 -0.61810356
-29.618391 -174.56021 -0.54808956
-29.620014 -174.57271 -0.4981935
-29.528919 -174.60823 -0.47525582
-29.767483 -177.08406 -0.63625771
-30.002728 -178.38457 -0.71149504
-28.705082 -178.2375 -0.57647753
-28.27527 -176.82249 -0.54140919
-28.220163 -177.10658 -0.6517877
-28.354082 -178.34387 -0.68657541
-28.119665 -177.13574 -0.61073011
-27.948244 -177.1553 -0.54513597
-27.913492 -177.16476 -0.57724082
-26.478834 -177.69365 -0.59292126
-26.17642 -177.7571 -0.66453147
-26.173037 -177.75995 -0.63225383
-25.950815 -177.59866 -0.61484742
-25.933151 -178.07674 -0.66686827
-25.797541 -177.45105 -0.62526006
-25.918043 -178.0782 -0.69147903
-25.782497 -177.45284 -0.64991033
-25.64521 -177.39619 -0.53061861
-25.45504 -177.3484 -0.63067997
-25.393064 -177.56845 -0.69012749
-24.94866 -176.33075 -0.7731446
-25.347137 -177.59003 -0.58243293
-25.308363 -177.59935 -0.57788736
-25.240007 -177.7787 -0.61101061
-25.144627 -177.80133 -0.59126377
-24.964495 -177.74522 -0.68470192
-24.414688 -177.74953 -0.79402351
-24.222776 -177.836 -0.56863987
-24.140142 -177.86319 -0.59213555
-23.022636 -176.10413 -0.4150112
-22.909237 -176.0526 -0.34551847
-21.50815 -178.40295 -0.65288192
-21.284475 -178.83295 -0.60731637
-20.914316 -177.81053 -0.56220198
-21.176327 -178.86171 -0.6399281
-19.499287 -178.20081 -0.58344567
-19.662502 -179.33563 -0.68471301
-19.401917 -179.4579 -0.71368021
-18.878157 -179.55324 -0.63972342
-18.798935 -179.56932 -0.63000417
-18.752256 -179.56511 -0.67148566
-18.626215 -179.58636 -0.54508495
-18.538795 -179.60355 -0.65913028
-18.157009 -179.20866 -0.61387664
-18.243399 -179.60587 -0.64144999
-18.057686 -179.22078 -0.59520555
-18.145365 -179.62257 -0.6231432
-17.199045 -178.74429 -0.59761429
-17.042309 -178.78995 -0.60832679
-17.025957 -178.80321 -0.60399765
-16.912355 -178.97211 -0.63470906
-16.713581 -179.51598 -0.66735983
-16.721115 -180.05415 -0.61147982
-16.615406 -179.55692 -0.57921481
-15.991361 -180.05005 -0.63989317
-15.830345 -180.08607 -0.64488053
-15.749763 -180.0656 -0.63960493
-15.467789 -179.19876 -0.6080637
-15.689857 -180.06761 -0.6745854
-44.29084 -173.24782 -0.68553591
-40.357014 -175.15462 -0.60585785
-35.694195 -171.32471 -0.56993109
-34.083439 -172.82703 -0.48477966
-32.750095 -172.01219 -0.64712602
-31.082487 -177.2471 -0.71630096
-27.93676 -177.16083 -0.55848229
-23.584566 -175.58514 -0.67611188
-23.390667 -175.08827 -0.62608719
-15.876822 -180.07736 -0.66155398
-25.918043 -178.0782 -0.69147903
-25.782497 -177.45284 -0.64991033
-13.677458 -181.04228 -0.75680238
-12.831603 -178.99911 -0.60861462
-49.234295 -173.52016 -0.81029344
-46.403069 -172.84032 -0.69323921
-46.625862 -173.87848 -0.76423937
-44.358608 -173.2317 -0.69248253
-42.374771 -169.95399 -0.46774858
-40.56683 -168.91806 -0.27465832
-42.016609 -173.63629 -0.68589938
-40.55003 -168.89891 -0.25932029
-42.009171 -173.63942 -0.66617471
-39.160229 -174.42792 -0.5464865
-38.546108 -173.73753 -0.49310634
-38.384541 -174.27036 -0.47181395
-38.265362 -174.0787 -0.71566194
-34.170731 -172.77704 -0.42014989
-34.105114 -172.79674 -0.3209902
-33.887829 -173.78406 -0.48073879
-33.443745 -178.62405 -0.77326059
-33.1493 -176.76932 -0.66892242
-32.027382 -176.51958 -0.62900949
-29.576096 -174.56822 -0.56201941
-30.037956 -178.38943 -0.7507534
-28.407503 -178.32932 -0.71921897
-28.17305 -177.1216 -0.64343375
-28.354082 -178.34387 -0.68657541
-28.119665 -177.13574 -0.61073011
-25.231216 -177.78729 -0.61268365
-24.228981 -177.84229 -0.59567368
-24.318312 -178.72357 -0.59960037
-22.94245 -176.11494 -0.49744794
-23.558598 -178.27916 -0.67163354
-18.80867 -179.56944 -0.63314837
-17.200497 -178.74236 -0.5919975
-17.021532 -178.79973 -0.61257315
-15.651454 -180.09927 -0.70143002
-14.986753 -179.66148 -0.70177364
-14.27398 -180.0551 -0.72802484
-14.106257 -181.23456 -0.78709191
-14.007546 -180.54102 -0.75309068
-10.866964 -181.74669 -0.9210034
-11.007692 -181.69864 -0.78689593
-8.9071245 -182.11639 -0.86629993
-61.98336 -174.9433 -0.85738856
-61.894951 -174.88615 -0.85703248
-57.836208 -175.13026 -0.77368754
-55.230419 -174.66516 -0.68511909
-55.11541 -174.67067 -0.86341166
-51.794136 -175.66617 -0.63082457
-51.681133 -175.67953 -0.42315397
-51.348488 -174.87927 -0.7382189
-51.839169 -180.43846 -0.96443808
-51.302704 -174.85399 -0.63009554
-51.502243 -179.12225 -0.6842308
-49.675518 -178.54613 -0.69487393
-49.528313 -178.53293 -0.86043996
-49.177139 -175.83952 -0.68657053
-49.44688 -178.1591 -0.83311725
-49.104778 -175.79387 -0.73700929
-49.386143 -178.21344 -0.88988841
-49.014172 -175.96181 -0.66954148
-48.817814 -175.99222 -0.97161436
-48.776096 -176.08417 -0.91249967
-48.698509 -176.13647 -0.84784812
-48.496201 -175.75375 -0.77063125
-48.382347 -175.77435 -0.82642019
-48.280949 -175.72804 -0.74751019
-48.188721 -175.71341 -0.62019533
-47.346306 -175.52936 -0.72168386
-47.212643 -175.21138 -0.70594835
-47.188362 -175.26425 -0.62734014
-46.975864 -175.09163 -0.50422877
-46.866074 -175.14763 -0.69524282
-46.918488 -179.58514 -0.85004163
-46.517441 -177.70296 -0.87345833
-46.494717 -177.7038 -0.89908254
-45.596088 -176.76208 -0.69332474
-45.217224 -176.91859 -0.7428236
-45.197918 -176.90898 -0.71989316
-45.111958 -176.94748 -0.71941721
-45.214893 -178.82106 -0.77827203
-44.74646 -177.77226 -0.85597301
-44.661568 -177.77255 -0.8933664
-44.559689 -177.63293 -0.32225883
-44.104977 -175.03607 -0.81980652
-44.401047 -177.58405 -0.6489498
-43.592735 -177.66631 -0.729361
-43.687328 -180.37445 -0.97310966
-43.493702 -177.85944 -0.83173496
-43.588058 -180.37927 -0.96207744
-43.394955 -177.87108 -0.82108647
-42.053387 -175.80038 -0.58371407
-41.935959 -175.8443 -0.60996908
-41.675961 -175.61168 -0.63046145
-41.643089 -175.62691 -0.67699522
-41.845512 -177.54774 -0.71544564
-41.717842 -177.35321 -0.52415049
-41.489319 -177.2139 -0.85414028
-41.363121 -176.95598 -0.73412317
-41.36747 -177.01421 -0.68236464
-41.174374 -177.13504 -0.65955716
-40.174622 -176.41182 -0.72580761
-40.111008 -176.5504 -0.86100852
-40.040565 -176.5939 -0.91327393
-40.101242 -176.59677 -0.38272524
-38.192375 -173.94838 -0.57971472
-38.766125 -179.11707 -0.93735498
-38.681015 -179.12781 -0.97734243
-38.52631 -178.92229 -0.99737287
-38.459839 -178.92831 -0.72569883
-38.35318 -178.96193 -0.79739171
-38.217743 -178.82019 -0.78968239
-38.099499 -178.82768 -0.76914662
-38.028923 -178.82986 -0.84843993
-37.301266 -176.21648 -0.73025858
-37.179325 -177.48529 -0.86592257
-37.365459 -179.02901 -0.96466446
-37.112274 -177.47156 -0.89374501
-37.299618 -179.01744 -0.99277467
-36.927444 -177.1534 -0.82062697
-37.12722 -179.09235 -0.82188028
-36.878643 -177.12711 -0.68931317
-36.712212 -176.88934 -0.70884591
-36.650024 -176.89853 -0.72739536
-36.45715 -176.77391 -0.53623748
-36.345699 -176.80618 -0.65475249
-36.208893 -177.62114 -0.80033022
-36.072643 -177.64761 -0.70418793
-35.594627 -175.48141 -0.58731532
-35.56134 -175.49689 -0.55239946
-35.845512 -178.17307 -0.76983172
-35.987709 -179.73193 -0.84765297
-35.828659 -178.18155 -0.75238007
-35.925323 -179.91566 -0.66775137
-34.877388 -179.86473 -0.6039207
-34.777767 -179.86903 -0.74355835
-34.4893 -177.85129 -0.2486717
-34.167549 -177.89127 -0.7249527
-33.969093 -177.73178 -0.64452583
-33.844097 -177.74419 -0.67501181
-33.373104 -177.18427 -0.96987695
-33.423988 -177.12894 -0.55089021
-33.238377 -177.25529 -0.65238583
-33.12513 -177.28621 -0.76392692
-31.474844 -177.66119 -0.64613575
-31.421906 -177.65671 -0.65062571
-31.321198 -177.92798 -0.62004071
-31.197935 -177.93393 -0.75790453
-31.151648 -178.18398 -0.60417455
-31.011765 -178.33559 -0.54081976
-30.86507 -178.31403 -0.67145985
-30.771929 -179.76486 -0.8439495
-30.71871 -179.78041 -0.80572498
-30.353367 -179.17152 -0.80550402
-30.406624 -180.67381 -0.85894954
-30.37236 -180.68166 -0.82411212
-29.368206 -179.88408 -0.71802634
-29.227459 -179.88956 -0.7095474
-28.720461 -178.33719 -0.67559975
-28.59178 -178.32904 -0.75396317
-28.011559 -178.23122 -0.77963173
-27.479399 -179.02834 -0.92625546
-27.392387 -178.91934 -0.75534451
-26.97481 -180.20193 -0.74384427
-26.831757 -180.22096 -0.75233853
-26.787563 -180.22031 -0.76862156
-26.685686 -180.37624 -0.84015375
-25.770912 -179.35109 -0.74256837
-25.743914 -179.35583 -0.72675735
-24.255013 -178.8221 -0.62085581
-24.186964 -179.46397 -0.73432338
-24.131414 -179.47047 -0.70915425
-23.78117 -180.21225 -0.87263942
-23.861696 -180.23099 -0.52731639
-23.690109 -180.22432 -0.82639819
-23.593489 -181.10217 -0.69493139
-23.386858 -181.0527 -0.72910082
-23.342495 -181.0891 -0.75282997
-23.272337 -181.09035 -0.74503863
-23.160929 -181.08031 -0.77727181
-22.958677 -179.99818 -0.73389983
-22.258158 -180.418 -0.67503154
-22.181944 -180.40076 -0.72278517
-22.071064 -180.39409 -0.74728745
-21.869806 -179.59975 -0.67648381
-21.844055 -180.92477 -0.58515257
-21.785467 -180.91196 -0.80834621
-21.501749 -179.91422 -0.72125268
-21.505028 -179.90707 -0.6647979
-21.40801 -179.92181 -0.64485979
-21.337584 -180.17184 -0.65578306
-21.245068 -180.18558 -0.61811495
-20.20125 -179.51152 -0.59935421
-20.059912 -179.5379 -0.70391345
-19.584307 -178.74762 -0.59433866
-19.470261 -178.79738 -0.66012597
-19.434826 -180.14868 -0.72028321
-19.441574 -181.04492 -0.78988838
-19.348984 -180.16888 -0.73423022
-19.418509 -181.04794 -0.76370537
-19.325142 -180.17165 -0.71016109
-18.605322 -180.36147 -0.79324949
-18.544127 -180.37404 -0.7906394
-18.287283 -179.54279 -0.72439718
-18.176765 -179.6004 -0.64342582
-18.310595 -180.40025 -0.70445943
-18.272903 -181.02171 -0.73732483
-46.911259 -175.12004 -0.2504462
-38.493122 -172.44127 -0.48926181
-37.292126 -179.04688 -0.5188728
-31.158554 -178.25494 -0.63460255
-34.512383 -180.00912 -0.76612824
-34.282219 -177.89487 -0.63926309
-28.674332 -177.1915 -0.67409837
-33.689861 -177.50705 -0.68440795
-23.643841 -180.35976 -0.64569318
-23.695072 -181.0408 -0.68269986
-20.930254 -181.73338 -0.76826715
-19.958748 -179.6312 -0.64173275
-24.141312 -178.82304 -0.66516984
-27.284969 -178.9292 -0.78645021
-13.813891 -181.23692 -0.79924935
-48.404011 -175.75224 -0.77594835
-48.30106 -175.51274 -0.81936342
-47.55748 -171.8044 -0.5162673
-48.20351 -175.52896 -0.80278933
-47.46096 -171.82909 -0.50765771
-47.023552 -175.10136 -0.55940813
-45.62907 -176.77853 -0.69077724
-45.232529 -178.9781 -0.83540463
-43.733398 -180.35646 -0.91273159
-43.536133 -177.81967 -0.76970881
-43.668816 -180.35715 -0.95075977
-43.473282 -177.83722 -0.80887401
-40.062771 -176.57011 -0.60143316
-38.775753 -174.39435 -0.55699748
-36.802742 -176.1411 -0.73403311
-37.015862 -177.38763 -0.82783633
-37.069332 -177.57599 -0.72030777
-37.244446 -179.03893 -0.81365228
-36.563786 -179.70871 -0.76453716
-34.147984 -177.88527 -0.71201962
-33.719128 -177.50194 -0.68856609
-33.262901 -177.23097 -0.66447461
-31.251854 -178.06995 -0.75977057
-31.180367 -178.17065 -0.66929191
-29.400532 -178.11522 -0.68402147
-27.966534 -178.32387 -0.66769636
-27.845633 -180.21753 -0.51379019
-27.520082 -180.01584 -0.73600852
-24.169186 -179.47629 -0.68321598
-23.837971 -181.02094 -0.68103093
-23.779243 -180.25995 -0.63621008
-20.209539 -179.51416 -0.60936171
-20.174919 -179.52153 -0.62466848
-17.156961 -179.78233 -0.69570321
-16.527441 -181.43767 -0.80089158
-15.427531 -180.62103 -0.78950381
-13.163994 -181.40045 -0.7978552
-59.216194 -177.80959 -0.851587
-54.779377 -177.35344 -0.97679901
-51.842213 -180.63838 -0.99634635
-50.66111 -177.75189 -0.88167316
-50.647186 -177.763 -0.71039099
-47.554714 -179.52715 -0.82713544
-47.074486 -176.70943 -0.76754564
-47.366741 -179.76828 -0.95603848
-46.969501 -176.64114 -0.70373207
-47.270412 -179.74149 -0.89479214
-46.239334 -179.54477 -0.89930826
-46.076973 -179.05035 -0.62286818
-45.988327 -179.12538 -0.77011335
-45.121483 -178.54808 -0.64049065
-44.979691 -178.77217 -0.85963607
-44.797802 -179.4045 -0.89659822
-44.710594 -179.39696 -0.65866357
-43.882156 -179.34898 -0.8338964
-43.635201 -178.46513 -0.86333889
-43.736935 -179.70038 -0.93257695
-43.53212 -178.87173 -0.88380909
-42.017773 -181.28127 -0.62653631
-41.195572 -178.44548 -0.93651152
-40.825104 -180.35316 -0.84089941
-40.759106 -180.4476 -0.93386078
-40.053326 -181.09085 -0.84872347
-39.824581 -181.2155 -0.94412321
-39.271809 -177.90759 -0.93046319
-39.383373 -180.28481 -0.62657255
-39.260509 -180.23732 -0.78851044
-39.210217 -181.91353 -0.91188872
-39.139954 -179.99718 -0.81427324
-39.106789 -181.85493 -0.84477627
-39.036907 -180.00179 -0.75014836
-38.89864 -181.79254 -0.89033514
-37.004631 -180.58574 -0.83399093
-36.945251 -180.56319 -0.81434065
-36.898891 -180.66096 -0.41707811
-36.827892 -180.56276 -0.9377858
-36.593719 -181.6286 -0.90695846
-36.391052 -179.95155 -0.93429196
-36.19978 -179.95354 -0.77656764
-35.577763 -179.73645 -0.82094908
-35.570705 -179.73827 -0.79950279
-35.501228 -183.17998 -0.82526529
-35.151669 -180.20691 -0.95993876
-35.021832 -180.24722 -0.75129569
-35.085102 -182.35094 -0.85657799
-34.970497 -182.22491 -0.87991345
-34.572361 -180.90715 -0.6445412
-34.433956 -180.86121 -0.89453208
-34.349358 -181.01926 -0.8352226
-34.247765 -181.01723 -0.76654685
-34.091671 -181.02437 -0.93947434
-33.983936 -180.8174 -0.84102958
-33.242538 -179.99719 -0.79375726
-33.15818 -180.02068 -0.82927752
-32.820316 -179.03479 -0.74687976
-32.710026 -179.03966 -0.87438685
-32.571838 -179.07385 -0.73827261
-32.722904 -180.92403 -0.85011822
-32.487873 -179.09946 -0.70802522
-32.637962 -180.93903 -0.81453723
-32.437984 -179.08823 -0.75965899
-32.588276 -180.92923 -0.87108576
-31.819824 -179.6743 -0.78850216
-31.919981 -181.15172 -0.87571824
-31.809568 -179.67093 -0.78670889
-31.910816 -181.15239 -0.86977869
-31.632259 -181.08588 -0.75100231
-31.385141 -179.35071 -0.72642392
-31.253185 -179.35666 -0.72743714
-31.220684 -181.83153 -0.8950116
-31.081028 -179.50407 -0.76735795
-30.858816 -180.26559 -0.79537153
-30.845104 -180.24815 -0.74477404
-30.781782 -181.84943 -0.7291382
-30.534931 -180.12743 -0.83376962
-30.618099 -181.86761 -0.92584282
-30.301424 -181.51653 -0.94088972
-30.229557 -181.51698 -0.88631004
-30.131895 -181.55345 -0.87119097
