# .PCD v0.7 - Point Cloud Data file format
VERSION 0.7
FIELDS x y z
SIZE 4 4 4
TYPE F F F
COUNT 1 1 1
WIDTH 1151
HEIGHT 1
VIEWPOINT 0 0 0 1 0 0 0
POINTS 1151
DATA ascii
-2.1200659e-14 -4.6843398e-33 -1.7926934e+21
-2.5617457e+10 3.4564449e-13 5.0244283e-24
-95.474831 -3.6243657e-07 -6219.5557
2.0701834e-17 0.023752745 -2.9946008e-31
1.9815856e+36 4.6844394e-33 3.4523133e-13
1.8810913e-29 -4.8176918e+29 -1.8716364e-32
-8.678238e-11 nan -1.2319943e+32
1.7521034e-38 -9.0610762e-08 -7.1401908e-38
-25009308 -1.1711229e-33 1.16985e-33
1.6797553e+15 1.38263e-12 -5.046069e+35
-1.3240444e-15 -3.2191924e-22 5.0242859e-24
390736.84 -8.0480757e-23 -5.7922216e-06
4.5081029e+23 3.5396003e-10 9.2675378e-05
-1.1808363e+29 -3.2332116e+37 -7.3108034e-35
3.1690558e+37 -5.0519291e+35 0.0014828892
-1.2341136e-24 1.3826895e-12 25474180
-2.9505126e+28 3.2333117e+37 1.6695507e+12
-2.8162605e+22 -0.0014846724 5.3946935e-15
-1.9350891e+33 -3.0702335e-28 -5.2682571e-18
-23.845434 7.4957601e-32 1.3170653e-18
8.4740313e-14 1.1712167e-33 -7.850345e-26
1563244.2 1.8820778e+27 -7.3429121e+24
-4.6128972e+26 6376753.5 1.6304527e+09
-24991570 4.7974317e-30 -2.1578078e-14
-5.1785804e-18 -1.6324628e+09 -0.094907537
2.5585181e+10 -3.6248753e-07 -3.0798348e+31
3.3881681e-13 2.9408639e+25 -7.1398573e-38
8.4674441e-14 -3.3759639e-16 -7.3428821e+24
5.4165717e-12 -4.5951549e+23 -4.4818004e+20
-3.0103272e-28 -1.5204195 4.9065565e-27
-3.0834426e-25 -1.9650903e-26 1.5185462
4.9339577e-24 -1.1712892e-33 3.1402773e-25
5.1683374e-18 8.6426404e-14 -4.8124636e+29
-7.010713e-38 -1.2335284e+32 -1.9711797e+33
-1.8814194e-29 1.9736538e+33 1.1979202e-30
4.0962848e+11 1.0448675e+11 1.4481458e-06
1.8353064e-32 -24894.455 1.174588e+26
-1.0267505e+11 1.7112735e+15 -1.2860787e-21
-5.6936565e-06 6.5286743e+09 -6367791
0.0058267349 1.41566e-09 4.9061101e-27
-1.6408767e+12 -7.3191771e-35 -8.6319617e-14
-1.2938637e-18 2.8590654e-37 -97.182434
-2.872964e-34 1.7869721e-38 4.4813205e+20
-2.5639461e+10 1.3501123e-15 7.5185794e+27
-5.6899939e-06 -6377781.5 -3.2294968e+37
6.8570663e+18 6.6863959e+12 -6368941.5
-1.759514e+21 -1.2047757e+29 -2.1579913e-14
1.966939e-23 -1.0699201e+14 -1.094226e+17
-23.853327 1.7522247e+18 1.1977713e-30
-1.7550715e-38 2.1598151e-14 -1.9707826e+33
-0.0014578495 5.7976576e-06 1.2861058e-21
7.2197472e+24 2.8710911e+22 -0.0059312354
4.302131e+17 -1.8816412e+27 1.1696955e-33
2.0230229e-20 -1.8296465e-35 -2.0180479e+36
-6.7215674e+15 3.0696446e-28 -2.0577871e-20
-3.3933777e-13 -0.0059377793 3.5350306e-10
3.234832e-19 0.095006168 -1.1696362e-33
0.00036414692 -1.0446052e+11 1.3169211e-18
1.2638985e-21 8.4382117e-17 -1.197781e-30
-3.3930801e-13 -2.674219e+13 -7.5181473e+27
-4.5976883e-33 1.148552e+23 388.72687
-1.1547282e+26 -2.2120819e-11 1.9248821e+30
7.3852983e+27 7.01033e+18 1.70975e+15
5.4258104e-12 -7.527438e+27 -1.669471e+12
2.7526104e+19 9.2782233e-05 5.0241837e-24
7.3895927e+27 1556.6188 7.1711543e+21
-1.1818404e+29 -5.6629692e-09 -4.5694979e-36
-0.093231104 -8.8487453e-11 -7.6656881e-29
-1.6010363e+09 -4.9333268e+32 1.2265219e-27
7.0132023e-38 1.2574773e-24 -1.3487438e-15
2.8717979e-34 -5.5305036e-12 -1.8716627e-32
5.172745e-18 2.940583e+25 -2.0182994e+36
381.66876 7.3515077e+24 -3.0076537e+28
4.9585884e+35 1.1486717e+23 -8.4302357e-17
-3.1564796e-22 -1.1993e-30 -1.2861742e-21
4.295494e+17 97.300766 -2.0577743e-20
4.0976957e+11 -2.6119899e+10 4.5893485e+23
-7.9264962e+36 -0.0059391302 -3.1402738e-25
2.0689177e-17 7.0117517e+18 2.7355697e+16
3.3117029e-16 2.9409679e+25 -3.452767e-13
-1.6780457e+15 -3.6254869e-07 -4.9279747e+32
1.8333405e-32 -1.787609e-38 1.9628657e-26
1.2652977e+38 1.927832e+30 1.7851864e-38
7.5405592e-29 -1.2328868e+32 3.0074077e+28
382.2764 -6.8439015e+15 2.7352248e+16
1529.1127 1.2872669e-21 -3.1401119e-25
5.1792669e-18 2.1596904e-14 1.9165836e-29
7.9047908e-23 -0.0059365192 -1.3810445e-12
8.0947501e-20 -1556.2841 4.1734265e+11
-2.8078113e-37 1.7865328e-38 -2.1576204e-14
-7.5691577e+30 0.0014842544 -2.1578642e-14
1.1777789e-30 1.1989756e-30 -8.6314602e-14
-3.0873008e-25 4.8170106e+29 0.02372534
-6.7227341e+15 1.0952591e+17 -97.188393
1565039.9 25501198 -24.294741
2.9562902e+28 -3.2326378e+37 -1.1979397e-30
6.8824579e+18 2.0599725e-20 -7.34264e+24
4.1022833e+11 -1.7944829e+21 4.7917649e-30
1528.0366 -2.0117012e-23 0.00037070946
1.8473214e+27 8.240001e-20 -4.6789781e-33
3.3921108e-13 2.2119286e-11 3.2924846e-19
-4.0053501e+08 8.0469965e-23 -97.182632
5.2995163e-15 1.1215909e+20 -6.0739207
7.182352e-35 4.6839883e-33 -6.8386338e+15
-0.093204305 1.0953298e+17 6.6777467e+12
8.6827094e-11 -1.1710285e-33 -1.1472307e+23
-6.5590012e+12 1593934.2 -1.9164019e-29
7.0408973e+21 -4.8173114e+29 0.00037072672
1.1220287e-36 1.8736428e-32 2.6713717e+13
-6.8741582e+18 -1.1216318e+20 5.0246259e-24
-6.4058639e+09 1.8377014e+24 -1.9710966e+33
-4.6154576e+26 -2.212047e-11 -8.632232e-14
-381.78461 1.1436113e-36 97.184769
-4.9548314e+35 6226.4209 -2.0097363e-23
-7.0097786e-38 3.0109388e+28 1.971191e+33
-8.0849228e-20 -8.4385492e-17 -5.3943645e-15
-97716.492 -1.121672e+20 0.094904721
5.0506065e-21 -1.7526239e+18 3.2924849e-19
-97676.375 -1.3185267e-18 3.0798471e+31
3.5536917e-07 0.095011145 4.6995656e+26
-3.0977573e+34 1.1486169e+23 -0.023727154
4.5067752e+23 -1.4497729e-06 -2.6714965e+13
7.9221818e+36 3.0110992e+28 -3.079776e+31
-1.2323016e-24 -8.0480902e-23 -0.00037074805
-1.6382674e+12 0.00037116249 -1.2615136e+35
-8.6728076e-11 0.0014847141 2.6088638e+10
nan -1.1712381e-33 -1.2615727e+35
0.0014556773 1.1218334e+20 -0.094912805
1.7512306e-38 4.9339447e+32 4.5896123e+23
4.0032272e+08 0.023756145 4.9282261e+32
-4.9278847e-24 -1.2631037e+35 1.2320617e+32
-7.5268508e-29 -1.8821793e+27 -1.2616326e+35
24420.01 1.2335205e+32 -0.0014830389
2.8150213e+22 -1.8740855e-32 2.2629443e-08
3.0243131e+31 25495464 -4.6787463e-33
-5.433513e-12 2.0595279e-20 6.8373367e+15
4.8254625e-27 -1.4495757e-06 8.8393161e-11
-25040486 4.7041861e+26 1.0941328e+17
1.1547834e+26 -8.2402401e-20 -2.9943532e-31
-2.2755323e-05 1.095536e+17 nan
1.927388e-26 -6.6880516e+12 -2.1074239e-17
4.6905023e-30 4.488248e+20 1.3488005e-15
1.3211298e-15 -9.0607372e-08 -7.3422895e+24
-1.8023067e+24 9.2772636e-05 -7.8841102e+33
-9.1096183e-05 -4.6838487e-33 -1554.858
-1.1772882e-30 1.1215798e+20 -3.2924797e-19
nan 4.1782218e+11 -4.5692392e-36
1.1544641e+26 -8.2402401e-20 -2.9943532e-31
1.7950785e-35 1.2573763e-24 2.3168155e-05
0.023303602 -4.9329361e+32 2.9242266e-34
-1.8462871e+27 -3.0831753e+31 -5.0458622e+35
-2.8171988e+22 -1.1485752e+23 7.7000118e+30
1.4217003e-06 7.4949367e-32 6.5211791e+09
-1.2383086e+35 -8.0825358e+36 7.4859518e-32
95.432983 1.9187357e-29 1.0189112e+08
7.707224e-26 -1.7115555e+15 -0.00037069901
1.7530476e-38 5.5304324e-12 -1.3169101e-18
-1.2625401e-21 2.1097131e-17 1.6302833e+09
-1.1536321e+26 1.2044132e+29 -1.2319855e+32
2.9413384e-31 5.5304563e-12 5.3950514e-15
-7.7038498e-26 -3.45662e-13 6.0743556
7.8938547e-23 -2.265374e-08 -8.0382452e-23
-0.00036383673 -24908.908 -3.0797286e+31
4.1942161e+14 4.7051579e+26 -5.2688489e-18
1.3571856e-12 1.8821045e+27 -6.678703e+12
-2.1186425e-14 7.0116522e+18 2.1581097e-14
-7.1763069e-35 24910.449 398101.16
-1.2626067e-21 1594297.9 -8.6324191e-14
1.8888029e+30 8.2429679e-20 4.6797808e-33
-0.37238711 -1.7121455e+15 -3.1406759e-25
-7.5457541e+30 25513074 1.0943645e+17
1.3874998e-09 -1.1714954e-33 4.813215e+29
1.0455399e+14 2.1089554e-17 -3.3715008e-16
-7.1892178e-35 8.6384357e-14 -1.2559067e-24
6115.4194 -4.1773266e+11 1.8357837e+24
-1.6417121e+12 -0.094981931 2.0579864e-20
1.1780831e-30 -2.0201459e+36 -3.1535064e+34
1.9757664e-23 3.0825365e+31 4.8121035e+29
4.8216099e-27 -2.0114336e-23 8.8393091e-11
-7.0460618e+21 -1.1434251e-36 -3.5353467e-10
7.9290848e+36 2.1598657e-14 4.1744463e+11
-2.6251234e+13 -7.4935866e-32 -2.9950261e-31
-7.2171503e+24 4.911099e-27 -1.1423569e-36
-1.2058203e-27 1.6711666e+12 -4.1738971e+11
-1.2107606e+32 -3.623795e-07 1.1203866e+20
4.6174617e+26 7.5263607e+27 -2.1072213e-17
0.37315795 1.4495317e-06 7.486201e-32
-2.8744726e-34 -1.1215508e+20 -1.0434092e+11
4.0066502e+08 -3.0829062e+31 398030.16
-1.1545859e+26 -0.0014843503 3.2155717e-22
1.7619232e+21 8.0467738e-23 6.0734634
-1.0255156e+11 1.8816618e+27 -6.6784214e+12
-4.2997471e+17 -1.4156107e-09 4.7913368e-30
7.56392e+30 -1.7867948e-38 -0.37961456
2.9417712e-31 -8.4379576e-17 8.8380726e-11
2.623667e+13 4.0803472e+08 1.7849521e-38
3.3133623e-16 -1.4496317e-06 -1.0685684e+14
-97780.727 -2.9977723e-31 -1.3171127e-18
-2.8729121e-34 3.1434327e-25 -5.7926027e-06
-8.0868608e-20 -4.6840893e-33 2.3170796e-05
-1.6392465e+12 1.3500981e-15 1.827853e-35
-1.0006143e+08 3.1571497e+34 2.671141e+13
1.0239368e+11 2.2120764e-11 2.9242229e-34
-4.2956603e+17 24.321775 -1.8357197e+24
1.8817794e-29 4.796685e-30 -1554.786
-1.4212287e-06 99622.195 -398058.25
2.2214058e-08 -6.0805445 2.0182313e+36
-3.3087254e-16 3.2962349e-19 4.5694947e-36
-7.0090231e-38 6.8460002e+15 1.7508288e+18
1.3886767e-09 -4.1784698e+11 nan
2.8713401e-34 -5.7988314e-06 -2.9247351e-34
-8.6878234e-11 8.6410154e-14 7.667029e-29
390926 -1.2876209e-21 4.3770352e+17
-8.6815548e-11 -1.1710976e-33 -2.1073478e-17
-2.169449e-11 9.0608886e-08 1.9712493e+33
7.2096177e+24 -2.9277882e-34 -4.9066571e-27
6.8778938e+18 -2.0119661e-23 -1.9249762e+30
5.0521441e-21 -2.0602567e-20 7.1711014e+21
-4.5949935e-33 -5.5304819e-12 388.74969
-2.5595302e+10 1.9271296e+30 3.5358039e-10
3.3884245e-13 -7.6752696e-29 1.3811753e-12
6251495 -1.0447074e+11 -2.8562234e-37
3.471784e-10 4.7049483e+26 2.2629328e-08
1.9736006e-23 -398532.5 7.3123268e-35
-2.2274277e-08 -8.0835436e+36 -1.0686052e+14
1.209819e+32 1.3186906e-18 -1.3171579e-18
-1.8379501e-32 -0.0059388736 3.6205819e-07
-1.8894899e+30 1.882144e+27 1.068549e+14
1562159.8 1.2934027e+38 -1.0435709e+11
-5.0531858e-21 398561.94 -3.2157583e-22
-6.4017014e+09 4.818331e+29 -6220.1895
-1.0001095e+08 3.5399614e-10 -7.5197529e+27
390695.38 -3.6250748e-07 -5.0464731e+35
0.023318106 -7.6764215e-29 -2.0581129e-20
4.7017111e-30 -1.1764119e+26 1.286322e-21
1.2913914e-18 3.0839035e+31 1.5187019
-1.8398002e-32 398586.59 -7.8855518e+33
3.02587e+31 4.9075665e-27 -2.9936202e-31
23.922426 4.178404e+11 -4.376593e+17
-24424.871 -7.8930227e+33 2.209488e-11
0.0058245617 -1.6321727e+09 8.4286058e-17
-1.4906809 3.0699908e-28 -97.183891
2.6856214e+16 3.4569819e-13 -3.6203846e-07
1.38798e-09 7.675987e-29 -7.7001363e+30
-4.097565e+11 0.023754936 -8.8388144e-11
1.1212044e-36 -7.8608264e-26 1.2561853e-24
381.73569 2.1604878e-14 -1.962618e-26
1.0488171e+14 2.1089554e-17 -3.3715008e-16
8.4875303e-14 -1.9266651e+30 -7.5189431e+27
-1.0502303e+14 -3.156734e+34 1.4481095e-06
4.7306117e+29 -6.6849001e+12 3.066419e-28
1.7616276e+21 8.0467738e-23 6.0734634
-391203.16 2.9976665e-31 -97.190186
-1.6407892e+12 1.3500981e-15 1.827853e-35
-5.0518113e-21 -24905.83 7.13923e-38
4.7226192e+29 -1.3501336e-15 -0.094904512
-7.0091862e-38 6.8460002e+15 1.7508288e+18
-3.390324e-13 -1.2875926e-21 -2.9374053e+25
-2.6228958e+13 -1.8377334e+24 3.1540281e+34
24435.082 -1.7947362e+21 -3.6200325e-07
-4.9519297e+35 -0.38004819 -1.9710037e+33
390723.75 2.3196402e-05 3.229579e+37
7.5271391e-29 8.8488258e-11 -7.1403225e-38
-390771.69 -24907.826 7.5192547e+27
1.9353644e+33 -6.5293757e+09 -3.1542838e+34
-2.2209084e-08 -5.5308601e-12 -5.0243103e-24
1.2097858e+32 1.3186906e-18 -1.3171579e-18
3.233356e-19 -4.5751659e-36 -1.2031446e+29
-1.8895376e+30 1.882144e+27 1.068549e+14
1562159.8 1.2934027e+38 -1.0435709e+11
-381.80792 -6.8472049e+15 0.00037075469
3.011625e-28 -1.2934129e+38 -2.73567e+16
-1.3552458e-12 -4.5753223e-36 5.0465016e+35
-5.1786114e-18 4.9127372e-27 3.1402576e-25
-1.2378931e+35 -3.2968679e-19 -1.0943255e+17
-382.01785 1.1713405e-33 1.0942476e+17
-6.5541935e+12 1.4161079e-09 1.2864045e-21
7.0342043e+21 1.5205972 1.0435883e+11
-4.955804e+35 -0.023761315 -1.3489399e-15
-24341.807 1.4154032e-09 -2.8680219e+22
-4.6011519e-33 4.17761e+11 7.170816e+21
-6.8842957e+18 -1.7942966e+21 2.9942895e-31
-2.1724142e-11 -3.5386918e-10 5.0248199e-24
1.2698967e+38 -1.8374149e+24 -1.962518e-26
0.0014579489 -1.38232e-12 2.7353521e+16
-1.2703127e+38 -6.6845441e+12 -6368601.5
8.8989232e-08 1.8815587e+27 -2.0182657e+36
-1.884247e-29 4.7038507e+26 -2.994774e-31
-9.112004e-05 1593744.2 2.9369665e+25
391280.19 7.6735254e-29 -9.268376e-05
1.1774899e-30 4.7960343e-30 -1.6304969e+09
2.5643864e+10 -1.7944117e+21 -5.0243596e-24
0.023318103 1.9267789e+30 -7.6990803e+30
-23.877264 1.262733e+35 -7.6995373e+30
24449.467 0.023749422 -7.5190859e+27
3.0140551e-28 -9.2771421e-05 9.2679977e-05
4.5995294e-33 2.0116903e-23 3.2156639e-22
-4.8433553e+32 3.5390316e-10 1.348631e-15
-1.3573593e-12 25501224 -6.5221509e+09
-5.560298e-09 2.1600555e-14 -24877.861
-382.09012 -1.4156214e-09 -0.0014828966
-1.8918811e+30 0.023750352 2.6088475e+10
5.4302977e-12 -3.0696805e-28 1.4142101e-09
-7.0483046e+21 1556.5146 1.0190462e+08
-5.9699411 -7.6742561e-29 -6369018.5
4.6186098e+26 -24904.494 -4.0761722e+08
-1.2390022e+35 -7.1472516e-38 -7.0028187e+18
-0.0014567843 3.1570841e+34 -1.6696157e+12
25050172 -4.2786702e+14 -7.0028896e+18
-1.1275045e+23 3.1435922e-25 -2.1072583e-17
7.709558e-26 8.8484373e-11 -2.9247195e-34
-0.37279257 2.1096419e-17 -0.0059317239
3.4719558e-10 1.1991904e-30 -5.6572369e-09
-4.7243793e+29 -3.4564476e-13 5.7927036e-06
-6106.0474 -1.2876306e-21 -1.1978896e-30
-0.37278578 -3.296376e-19 -8.8382961e-11
2.6870705e+16 -8.240982e-20 4.9068365e-27
1.2631366e-21 -2.8042774e+19 -1.2862221e-21
7.3839589e+27 7.0107352e+18 -2.1073343e-17
-24415.877 -3.5395312e-10 -1.0435038e+11
-1.8892979e+30 -97.294044 5.5242685e-12
6.4064154e+09 0.38005227 -7.8853543e+33
5.686265e-06 0.095013805 0.0014830773
8.0901321e-20 -7.0109265e+18 -3.1540296e+34
8.8852026e-08 -7.1482566e-38 -7.1713952e+21
1.0498531e+14 -1.2877193e-21 -2.0185694e+36
-7.5597105e+30 -4.4870521e+20 -2.3172059e-05
2.1195319e-14 -7.3198716e-35 1.6305882e+09
97682.078 -7.3199164e-35 -4.7918961e-30
-1.1004981e+20 -8.0833769e+36 7.3121718e-35
-1.9769077e-23 -1.7871601e-38 -8.8398781e-11
-2.024195e-20 1.6716509e+12 -6.8391841e+15
-2.6883429e+16 -1.7528548e+18 -1.9167475e-29
1.4916691 8.2419061e-20 -1.7508303e+18
-0.0014547892 1.4499294e-06 2.1076205e-17
-1.9849984e+36 -1.4159905e-09 1.0686226e+14
3.5536462e-07 -1.2631072e+35 2.1076038e-17
-4.4911098e-36 2.6120665e+10 1.9167515e-29
1.12703e+23 -8.6426214e-14 7.3118659e-35
-1.4208205e-06 -1.3504202e-15 -2.2098757e-11
-1.154474e+26 -5.0307896e-24 -2.0098672e-23
-2.9552968e+28 -2.0123255e-23 4.9281337e+32
-1.882225e-29 3.2970003e-19 2.1075923e-17
4.195713e+14 -1.9736939e+33 -1.1750176e+26
-1.5998019e+09 -9.0628227e-08 8.839561e-11
-3.2283001e-19 -1.0203795e+08 -1.6698025e+12
1.1519569e+26 -3.2970481e-19 -2.9247746e-34
-2.2180085e-08 8.2426254e-20 6220.3096
-1.0984781e+20 -7.8923796e+33 -4.7910084e-30
4.7072278e-30 -2.0601817e-20 1.1697394e-33
8.8777163e-08 1.8815587e+27 -2.0182657e+36
-1.884247e-29 4.7038507e+26 -2.994774e-31
2.5648011e+10 -1.7944117e+21 -5.0243596e-24
-2.625385e+13 4.4861151e+20 -5.1444459e-21
24454.895 0.023749422 -7.5190859e+27
-3.236317e-19 6225.9028 -1.0684775e+14
-1.127624e+23 3.538986e-10 4.8124001e+29
-1.4233188e-06 -8.0469063e-23 -1592086
5.4269458e-12 -3.0696805e-28 1.4142101e-09
3.0141535e-28 nan 6.5218826e+09
3.0138755e-28 -1.837718e+24 -2.6086783e+10
3.472051e-10 1.1991904e-30 -5.6572369e-09
-4.7243793e+29 -3.4564476e-13 5.7927036e-06
-3.3100949e-16 2.940462e+25 1.6303786e+09
-2.686167e+16 7.6751281e-29 7.8844915e+33
-5.6876975e-06 -1.9271739e+30 -7.7002355e+30
-1.0243731e+11 0.38007292 -7.1714515e+21
2.0207715e-20 1.2335065e+32 -1.7097974e+15
4.1965364e+14 -1.9736939e+33 -1.1750176e+26
1.7514062e-38 -1.1713459e-33 1592397.9
-4.4805441e-36 1.712037e+15 1555.1593
-1561190.1 -5.0312598e-24 -1.1750559e+26
-1.1748793e-30 -3.6254821e-07 -2.3173387e-05
-7.3430763e-32 4.5760774e-36 2.0582759e-20
-3.3046911e-16 -1.8371379e+24 1.8276449e-35
-2.8890797e+25 3.0100874e+28 7.3108258e-35
7.7185368e-26 1.4493739e-06 8.8383099e-11
-5.693631e-06 3.6235389e-07 -2.936884e+25
7.5363721e-29 -4.6833161e-33 6368357
-1.4231867e-06 3.1567922e+34 -2.6712224e+13
3.2362185e-19 -1.1990262e-30 2.2626187e-08
-1.0502772e+14 -1.4495392e-06 4.9275507e+32
1.17718e-30 -6225.6753 -1.7097204e+15
-2.2770299e-05 99611.961 2.2626244e-08
1.2395098e+35 -7.7070423e+30 4.5696866e-36
4.7080742e-30 -1.2331277e+32 -24880.211
-6112.6821 3.1568147e+34 -6.6787381e+12
7.5675111e+30 -1.2930559e+38 -1.7849539e-38
1.8822787e-29 -1.1709609e-33 1.1424191e-36
-2.9556591e+28 -0.00037109773 1592297.5
-1.6405536e+12 -5.7984048e-06 -1.7850302e-38
1.1767356e-30 -3.2960338e-19 8.038947e-23
-1.153384e+26 -3.1433625e-25 24879.422
1.3252869e-15 -25502024 -6.5219901e+09
-7.3864937e+27 4.4864849e+20 -5.7927482e-06
-25036014 -2.8040647e+19 99518.703
1.9749829e-23 1.7868559e-38 -5.7928701e-06
0.0014562259 2.1095491e-17 1.1749372e+26
-7.0449443e+21 -6226.3906 -1.0435948e+11
4.4004257e+20 97.287407 1.3488158e-15
-7.7426068e+33 2.8714805e+22 -4.2741233e+14
-2.6841228e+16 -2.0601962e-20 6.5217884e+09
4.9537983e+35 2.1096441e-17 3.1537416e+34
0.0014559493 5.1504881e-21 4.9279391e+32
-1.9349455e+33 -1.8818709e+27 1.9627288e-26
1526.7118 7.1478032e-38 -6.0743575
1.1217144e-36 -4.7968291e-30 -3.1403576e-25
1.0738334e+17 3.1436593e-25 -8.03932e-23
4.706855e-30 4.2789451e+14 2.1074641e-17
7.9319883e+36 -6.6858978e+12 4.274176e+14
-0.0014567049 -5.0517837e+35 -1.2614395e+35
2.1698027e-11 3.0700221e-28 -8.8388928e-11
-7.5303066e-29 7.3513296e+24 6219.3823
1.0244446e+11 1.3826182e-12 2.009733e-23
1.1538024e+26 25504808 4.6998449e+26
-1.0016137e+08 -4.5945507e+23 1.4483044e-06
-7.7459815e+33 -1594060.8 -1.2919319e+38
1.3561349e-12 3.3756153e-16 1.1424712e-36
7.735121e+33 4.684615e-33 1.835985e+24
1.7191689e+18 -0.38006261 -1.8719338e-32
-1.0245104e+11 1.1711607e-33 -1.7929572e+21
2.6227409e+13 8.4392328e-17 1.9249334e+30
-4.5939032e-33 -1.2877148e-21 1.1474255e+23
-2.2751923e-05 -2.8717336e+22 1.5185091
-3.2317388e-19 1.449844e-06 -8.4299657e-17
3.5538673e-07 -1.7527696e+18 1.97126e+33
-7.7460873e+33 1.711692e+15 4.6795457e-33
1.8819224e-29 1.3186471e-18 2.8685601e+22
-7.3798818e+27 -1.7117031e+15 -1.2561605e-24
2.0207812e-20 389.20132 8.0742935e+36
1.9757357e-23 -1.2933478e+38 -1.1424753e-36
-6.4029061e+09 -1.1712223e-33 -1.1979797e-30
3.0244843e+31 -6.0814056 4.9278981e+32
3.1546434e-22 -8.4395828e-17 1.7098131e+15
-24998582 1.1712416e-33 8.6318248e-14
-5.4215079e-12 -4.9125049e-27 -7.4873965e-32
1.7597431e+21 5.0522274e+35 -1.0942871e+17
-2.8012629e-37 1.382753e-12 2.0581289e-20
-1.8040952e+24 -1.2334586e+32 -99525.062
3.3928277e-13 7.1797601e+21 -4.5897884e+23
-8.6823722e-11 5.4014876e-15 -4.1745478e+11
7.5241136e-29 -3.0114526e+28 4.9284505e+32
-1.9837838e+36 -1.2281879e-27 0.37965751
5.546942e-09 -3.5400261e-10 -24881.527
-4.8351799e+32 -4.7055538e+26 7.3121121e-35
-7.3767243e+27 2.1100605e-17 2.9248795e-34
1.8799846e-29 -5.0308184e-24 2.8686946e+22
-381.46649 -2.2656826e-08 2.856307e-37
2.6216912e+13 -7.0120051e+18 2.8688186e+22
1.1749331e-30 -5.2752678e-18 -0.0059325835
-24398.549 -1.0203959e+08 -1.1425339e-36
1.9230692e-26 4.3809422e+17 -24.294678
4.7099888e-30 -1.2331277e+32 -24880.211
4.9377853e-24 3.6238498e-07 7.1402754e-38
8.4826541e-14 -3.0696251e-28 1.9712128e+33
1.1006359e+20 3.2960596e-19 7.5193397e+27
1.1768066e-30 3.0108477e+28 -5.0245225e-24
4.4021951e+20 97.287407 1.3488158e-15
-1.760465e+21 7.7081243e+30 -7.3428769e+24
-1.2044306e-27 -2.6116078e+10 6.8393274e+15
-2.8849926e+25 8.8486045e-11 -3.1400335e-25
1.0744794e+17 3.1436593e-25 -8.03932e-23
1.2049549e-27 -3.6244822e-07 8.0383645e-23
-4.0960449e+11 -1594048.9 -9.0510291e-08
7.55833e+30 1.2044856e+29 -1.2319565e+32
-7.707282e-26 -1.2333838e+32 -1.2267176e-27
-7.7420634e+33 1.711692e+15 4.6795457e-33
-2.0206988e-20 -1.8380135e+24 -1.8359132e+24
1.2632237e-21 2.8720914e+22 -4.569881e-36
4.9293441e-24 1.0699342e+14 -3.1541608e+34
1.2623442e-21 -1594352.4 -5.0464632e+35
-1.1011502e+20 1.2879074e-21 -8.8402334e-11
3.3863618e-13 0.38014007 -4.5701899e-36
7.2059295e+24 -9.0635126e-08 1.3172756e-18
24989568 6228.4595 4.7924935e-30
-1.7576699e+21 1.1489529e+23 2.9953197e-31
6.8644902e+18 -2.211516e-11 1592293.6
1.6412011e+12 1.9181997e-29 -6.0736022
-4.9389461e-24 7.3173037e-35 7.3114532e-35
-1.4924948 6.0790272 1.1697322e-33
-4.8435534e+32 2.1091251e-17 1.4140781e-09
1.2643029e-21 4.5734436e-36 -5.3942806e-15
-1.1228635e-36 1.0951387e+17 -5.0237195e-24
6.878719e+18 2.0115256e-23 2.6087741e+10
2.1210838e-14 -1.4154872e-09 9.0510177e-08
2.8874887e+25 -1.1989677e-30 -3.5355527e-10
7.0166983e-38 -5.7979669e-06 5.023934e-24
-7.7155046e-26 -5.6620841e-09 1.1978e-30
-4.3018499e+17 -1.7112547e+15 -7.5196491e+27
-5.058209e-21 -1.9645074e-26 -2.7355465e+16
4.7086219e-30 -6.52817e+09 3.0800881e+31
1.8039294e+24 0.09499798 3.0077673e+28
-7.7479337e+33 -7.673845e-29 -1.7097933e+15
8.2829724e-17 -398450.75 -1.7850519e-38
-1.1010399e+20 -2.9976554e-31 -7.3113573e-35
-1.3572025e-12 1.9645519e-26 -8.2318675e-20
1.7964936e-35 -6225.9067 1.7097817e+15
6111.9536 -6.6850841e+12 -9.052237e-08
-4.7066128e-30 8.4379166e-17 2.3169372e-05
-0.37286392 2.0600473e-20 nan
2.8723333e-34 -3.1569939e+34 6.8392007e+15
-7.8962724e-23 1.3824697e-12 -1.1205363e+20
2.1704858e-11 -2.6741028e+13 -0.094913013
-4.5950522e-33 1.0200896e+08 0.0014830164
7.9280561e+36 -5.0512874e+35 -1.2560931e-24
-1.1812065e+29 -2.0205544e+36 -3.2153917e-22
-6.5516161e+12 -2.8589554e-37 -1.3171315e-18
-1.8805824e-29 -389.14145 -0.00037074386
4.9547538e+35 2.927599e-34 1.2030455e+29
1.7524085e-38 -2.7383743e+16 2.855905e-37
5.1744928e-18 99620.664 7.5195841e+27
-8.2802533e-17 -1.7946111e+21 -2.3171542e-05
1.9834484e+36 6.8458697e+15 -0.0014831304
nan -1.1216484e+20 -6.8388093e+15
4.8367551e+32 1.873697e-32 2.1579516e-14
1.233178e-24 -1.1710628e-33 1.0190654e+08
2.1183862e-14 -1.1436196e-36 -3.3717803e-16
1.9723795e-23 3.6242582e-07 5.3953212e-15
-2.2204956e-08 2.9276571e-34 1.3172954e-18
0.023291472 -1.0201481e+08 -1592421.6
4.1983161e+14 -5.663042e-09 -3.0667736e-28
5.299507e-15 3.0110215e+28 -2.8685482e+22
-5.2941855e-15 4.5944794e+23 -2.2097406e-11
5.4208504e-12 24.323086 2.9947726e-31
-8.2696932e-17 2.1603342e-14 -1.1424216e-36
-6.7169681e+15 -4.2789632e+14 -1.1750154e+26
-4.499002e+23 -3.3755581e-16 -5.2686413e-18
-6.8695788e+18 -5.1506683e-21 1.7851707e-38
1.8883059e+30 -0.38006377 3.5356595e-10
8.2708903e-17 -5.6633689e-09 -3.0801012e+31
4.8146176e-27 -1.020218e+08 6.0748186
2.7498375e+19 -24.32403 4.7001839e+26
4.7042091e-30 0.38006538 -4.3773492e+17
-0.0014566417 -7.1483867e-38 -2.3172719e-05
-2.9414271e-31 2.9406872e+25 -3.2930544e-19
-381.54779 -8.6419993e-14 -7.1407799e-38
-1.6378523e+12 -1.204531e+29 -8.0749216e+36
-2.7531067e+19 -1.8739572e-32 -1.0943566e+17
-1.0255291e+11 1.1218115e+20 -3.4531796e-13
-1.9832387e+36 24909.816 8.6325824e-14
-1.0503982e+14 3.0703611e-28 8.6328941e-14
7.0186679e-38 97.304375 7.8517939e-26
2.2780156e-05 4.3822101e+17 0.094916858
8.6766185e-11 -1556.8752 -3.2930918e-19
7.3771263e+27 1.2281613e-27 4.0766515e+08
6.564091e+12 -0.0059390902 1592435.2
5.2962658e-15 -1.1487901e+23 -3.5359163e-10
-7.5237765e-29 2.0122504e-23 1.9713407e+33
-6.5538396e+12 1.2878451e-21 -1.9629036e-26
-4.3976919e+20 -6.5301745e+09 2.0581788e-20
-0.005820109 -4.7976318e-30 7.3124094e-35
-2.7472703e+19 -7.8604769e-26 5.0468474e+35
-9.0877234e-05 -6.8474712e+15 7.141008e-38
1.2313345e-24 -4.6852435e-33 8.8401508e-11
1.924453e-26 -398578.62 8.8398802e-11
1524.8014 0.0014848162 1.20326e+29
-2.9367147e-31 8.2426079e-20 8.430417e-17
1.1203539e-36 5.030919e-24 1.8800345e+27
-2.2248857e-08 1.416063e-09 -9.2699011e-05
0.023258308 -1.0956322e+17 -2.8014859e+19
-1.878794e-29 -3.0116689e+28 -4.0766768e+08
1.6807542e+15 -1.9274565e+30 1.2563103e-24
4.6983554e-30 3.2337501e+37 -1.6698421e+12
-4.8321763e+32 2.1091251e-17 1.4140781e-09
2.1211482e-14 -1.4154872e-09 9.0510177e-08
-2.172305e-11 1.0952066e+17 -1.7505879e+18
3.3138216e-16 -2.6111957e+10 1.6695444e+12
2.0721481e-17 0.37997612 3.371931e-16
-1.9295559e-26 -1.2042048e+29 2.9946038e-31
-7.5693402e+30 1.6711537e+12 7.1713784e+21
1.8046564e+24 0.09499798 3.0077673e+28
-7.7479337e+33 -7.673845e-29 -1.7097933e+15
-8.4817637e-14 -2.3193277e-05 6.0743437
-1.4914439 1.8735651e-32 -4.9063069e-27
1.9359307e+33 8.0817156e+36 -2.2630491e-08
6109.2871 -6.6850841e+12 -9.052237e-08
1.2101176e+32 1.3500733e-15 -8.2314358e-20
2.8716039e-34 -3.1569939e+34 6.8392007e+15
-25024286 4.5742353e-36 -7.7002627e+30
1.7533133e-38 -2.7383743e+16 2.855905e-37
5.1744928e-18 99620.664 7.5195841e+27
-3.1723628e+37 -4.9329319e+32 -24882.219
1.233084e-24 -1.1710628e-33 1.0190654e+08
-0.37267044 -2.0205959e+36 -2.2630932e-08
-1.3247512e-15 -2.1602562e-14 -25479496
-7.7076937e-26 -3.1572811e+34 -1.3171996e-18
1.6391851e+12 2.0120194e-23 -1.0943419e+17
-0.0014558306 -7.1483867e-38 -2.3172719e-05
-1.3890497e-09 -2.2654755e-08 2.8564037e-37
-4.9592579e+35 4.3822228e+17 -1.0686701e+14
-1.9378518e+33 1.1487704e+23 7.7005716e+30
-2.6222594e+13 8.8500422e-11 -4.0763981e+08
-4.4837497e-36 1.1993956e-30 6.6791481e+12
1.0486915e+14 -2.0606635e-20 2.0099551e-23
-2.1217928e-14 -2.0210707e+36 8.0403379e-23
-390571.97 -8.2430202e-20 2.1077361e-17
-1.7998105e+24 -1.1490186e+23 5.5255024e-12
-2.2714325e-05 -8.4365348e-17 1.2030676e+29
-2.0229506e-20 8.437278e-17 -0.005931926
-8.6903276e-11 6.0797219 1.8358416e+24
-7.747246e+33 -0.094995998 3.452837e-13
3.0853494e-25 3.5388562e-10 8.0753533e+36
-7.205813e+24 4.1779528e+11 1.2563267e-24
-2.9520606e+28 -1.8295968e-35 398090.22
-1.1276518e+23 1.2572855e-24 -1.0943068e+17
4.510315e+23 -8.2397742e-20 -0.005932013
6.4097823e+09 3.0695662e-28 5.0246081e-24
-1.1220647e-36 -1.9185055e-29 1.8717854e-32
-0.00036431188 25501208 1592452.5
1.2940987e-18 -2.3193354e-05 4.5697953e-36
8.2834171e-17 -1.3500261e-15 -8.0747011e+36
7.8989608e-23 7.6740562e-29 2.9948627e-31
4.9374311e-24 -3.0829289e+31 3.0080306e+28
-1.1760972e-30 -1.7524629e+18 -3.2296908e+37
5.9653287 24903.875 5.0248913e-24
4.6148275e+26 -3.1569603e+34 25477780
-2.6877259e+16 1.2627778e+35 1.6698096e+12
-6.4071506e+09 -1.3824561e-12 -0.02372806
-0.093247175 1.4496031e-06 -6.8395443e+15
-6110.2095 1.752486e+18 398100.53
7.5265089e-29 1.9731799e+33 2.2096873e-11
-1.0006454e+08 3.2328204e+37 24881.551
3.0242595e+31 -4.080457e+08 -1.4481403e-06
7.0433517e+21 -1.3500942e-15 -1.120566e+20
3.3912584e-13 7.5271198e+27 -1.6695928e+12
-1.6790432e+15 -2.8040379e+19 1.2863466e-21
-4.197739e+14 -1.9646576e-26 -6369794.5
5.9666314 -389.14166 -4.5899225e+23
7.7412637e+33 -4.0805187e+08 -3.1405235e-25
2.8026158e-37 1.4157179e-09 -1.1750112e+26
1.2623127e-21 1.9269885e+30 1.7851891e-38
-7.3473757e-32 1.8818264e+27 -4.3772706e+17
-1.1531674e+26 -2.109609e-17 1.7929318e+21
-3.3903742e-13 2.6742635e+13 -4.3772073e+17
4.5973261e-33 1.8819129e+27 -1.0191509e+08
1.7586015e+21 -3.6244268e-07 -1.6307903e+09
3.0247377e+31 -2.9404885e+25 2.2101331e-11
-7.7350597e+33 7.7084066e+30 0.0003707539
-3.4678468e-10 -6.0807972 -5.0252613e-24
nan 1.2333446e+32 -1.7852184e-38
1.2091608e+32 -1.7116159e+15 1.2863865e-21
3.0087496e-28 2.6117448e+10 -6.5233398e+09
-7.886493e-23 7.148371e-38 -0.00037078009
-1.6011862e+09 -4.7972462e-30 8.8401196e-11
-1.7186881e+18 1.0955147e+17 -7.520309e+27
-1.6790847e+15 2.0208986e+36 -5.2688944e-18
-3.5550246e-07 4.8181746e+29 -1.6307178e+09
-7.7087636e-26 -1.0955384e+17 4.1744993e+11
-1.2346841e-24 3.3759687e-16 1.0192274e+08
-1.8815487e-29 -7.3524571e+24 -3.3722457e-16
5.9490609 3.6250682e-07 -398122.16
-1524.6064 -7.1802718e+21 -2.2101246e-11
5.5411458e-09 4.5932829e+23 -1.8357349e+24
-2.022913e-20 8.437278e-17 -0.005931926
-7.7520313e+33 -0.094995998 3.452837e-13
6.880559e+18 -1.31836e-18 -2.0182867e+36
-1.126906e+23 1.2572855e-24 -1.0943068e+17
4.510315e+23 -8.2397742e-20 -0.005932013
-0.00036435394 25501208 1592452.5
1.2940987e-18 -2.3193354e-05 4.5697953e-36
-1.7540818e-38 7.3185974e-35 3.6207629e-07
-9.1032991e-05 3.6241303e-07 1.286165e-21
3.0243632e+31 -4.080457e+08 -1.4481403e-06
7.0433517e+21 -1.3500942e-15 -1.120566e+20
-7.3536194e-32 1.8818264e+27 -4.3772706e+17
-4.7029802e-30 7.674746e-29 1.2320811e+32
0.37279725 -3.0833605e+31 1.4143128e-09
-2.5588285e+10 -1.8737888e-32 -3.0804745e+31
2.867748e-34 -3.4565975e-13 -1.1474284e+23
-7.8892364e-23 7.148371e-38 -0.00037078009
1.2934279e-18 -1.7117032e+15 -0.0014831236
24423.146 -0.023756526 -4.9282505e+32
-2.1703729e-11 2.2125343e-11 1592497
-2.6205972e+13 1.8741568e-32 3.1406204e-25
-2.1728759e-11 -4.9129252e-27 1.6699302e+12
-2.1151614e-14 7.180349e+21 -1.2864714e-21
4.0955652e+11 -1.2336012e+32 8.6335941e-14
0.0058126324 7.012236e+18 -3.0804438e+31
4.0909501e+11 -1.1764967e+26 1.2322268e+32
5.2838491e-15 -2.7368998e+16 2.3169385e-05
-1.9310317e-26 8.4371516e-17 -7.4880648e-32
-1.2392436e+35 6.080081 -2.6088925e+10
8.277241e-17 -7.0098842e+18 -1.197947e-30
-3.0966632e+34 1.0952948e+17 -1.6305609e+09
-2.9405704e-31 -2.9977652e-31 -3.5358144e-10
-23.857374 8.0470029e-23 1.7852975e-38
-1.1758164e-30 -1.9268919e+30 -5.7930747e-06
0.023300782 3.0696923e-28 1.170012e-33
2.7498399e+19 1.3501138e-15 4.1744794e+11
-5.4169984e-12 -0.38002661 5.0465559e+35
-1.7592925e+21 -2.9403095e+25 99530.883
-4.9508344e+35 2.0601205e-20 8.0751828e+36
2.8137617e+22 -4.7966335e-30 -1.0436606e+11
1.232587e-24 -8.0822918e+36 2.6092392e+10
1562193.5 3.5392886e-10 1.2032985e+29
-2.2725364e-05 -7.7079236e+30 1.3813262e-12
-5.0550259e-21 -2.8714875e+22 3.5359118e-10
-6.4045655e+09 1.7947081e+21 -9.052178e-08
4.96155e+35 0.0059382124 -2.8015163e+19
-24455.91 -3.4565482e-13 -2.8015715e+19
1.126296e+23 8.0828299e+36 -5.7935094e-06
-4.004864e+08 5.7991665e-06 -4.6799659e-33
1.1814151e+29 -8.2411468e-20 5.0468423e+35
-3.9983866e+08 1.1436983e-36 -9.2695343e-05
-8.4817217e-14 5.5306432e-12 1.9715656e+33
-6243169.5 -5.663483e-09 4.6801999e-33
1.883699e-29 4.0809946e+08 4.680208e-33
2.5630462e+10 2.9280527e-34 25480952
-2.5650489e+10 7.8599512e-26 1.8360928e+24
0.3729338 4.7973486e-30 4.9287283e+32
2.9393102e-31 97.30191 -1.0192376e+08
-1.7601632e+21 5.2747848e-18 1.2032931e+29
0.0003638911 -5.4013915e-15 1.6307697e+09
5.2978684e-15 -2.7368998e+16 2.3169385e-05
0.0014590463 -4.9112338e-27 1.0191572e+08
-5.0544383e-21 -24.320375 -1.2561368e-24
-3.0971034e+34 1.0952948e+17 -1.6305609e+09
4.4007919e+20 2.8588778e-37 4.5904197e+23
95.394234 -7.1472186e-38 -8.0402136e-23
1.1487621e-33 8.0822994e+36 -0.094919518
7.7394798e+33 -5.7988004e-06 1555.2286
-7.7019923e-26 5.6631309e-09 -1.7098861e+15
1.4896317 -5.0298434e-24 7.7016221e+30
-24403.156 -3.4565482e-13 -2.8015715e+19
-4.0014074e+08 1.1436983e-36 -9.2695343e-05
-1.234253e-24 3.1438661e-25 -4.5903109e+23
0.005825493 -1.4159145e-09 2.3173345e-05
381.67838 -1.2576873e-24 3.2298645e+37
-4.592594e-33 6.6873978e+12 1.0437292e+11
-6.8689691e+18 -2.2126688e-11 -5.3961128e-15
-390412.69 7.8611524e-26 -1.0437986e+11
-4.8223486e+32 -9.2810311e-05 -1592658
8.0558693e-20 -1.3829989e-12 97.208298
-6.6982377e+15 4.2802772e+14 -1.7932381e+21
0.37161848 3.2182231e-22 1.962618e-26
-1.3902876e-09 6224.8711 -8.0748773e+36
-1.154651e+26 -2.9400245e+25 7.8845125e+33
7.5678176e+30 -1.1991507e-30 -4.9285209e+32
2.2215318e-08 -1.2574008e-24 2.609136e+10
7.1756434e-35 -2.8041142e+19 -1.3173408e-18
3.2321366e-19 -5.662971e-09 nan
1.8804298e-29 -6226.6387 -1.8360859e+24
-7.3803723e+27 -1594026.1 1.7510303e+18
-4.70169e-30 2.6117091e+10 -7.8858922e+33
-7.2064615e+24 -5.0300753e-24 4.076792e+08
-5.302519e-15 6.6861091e+12 1.6308724e+09
-1.8020629e+24 1.0202299e+08 -1.2863875e-21
-7.2093842e+24 1.1437114e-36 3.5363965e-10
-1.8005119e+24 -9.2789793e-05 3.0671821e-28
7.7360971e+33 -1.2933361e+38 -3.140722e-25
4.1982024e+14 5.0302998e-24 -7.3125242e-35
-1.9719584e-23 -3.0702231e-28 -3.5365441e-10
4.2915076e+17 1.2575743e-24 1555.3936
-7.7443332e+33 1.0955023e+17 -4.1752297e+11
4.8355996e+32 -5.6637379e-09 -1.9170129e-29
-7.3757674e+27 1.3503611e-15 -4.7005436e+26
7.55704e+30 -24.32622 -1.7855547e-38
2.2741166e-05 -1.6716933e+12 8.4320224e-17
2.7504483e+19 1.9273398e+30 -4.1753385e+11
4.5084329e+23 8.0490091e-23 -3.2934452e-19
1.1249814e+23 -4.1793133e+11 -7.1415282e-38
-3.0829069e-25 24910.867 -3.0672832e-28
3.238106e-19 -8.2423856e-20 -7.313023e-35
-7.2180565e+24 2.9282838e-34 -3.293492e-19
7.5679059e+30 1.204654e+29 -3.1544465e+34
-3.0978897e+34 1.3188148e-18 -1.751072e+18
-5.9657621 -1.1483001e+23 -6.5219041e+09
23.885242 3.2321368e+37 4.4824556e+20
-6.8824546e+18 -3.0695221e-28 5.5242798e-12
-4.6173632e+26 -1.2574004e-24 -1.3812657e-12
3.2323129e-19 -5.662971e-09 nan
-5.2929395e-15 6.6861091e+12 1.6308724e+09
1.1262893e+23 2.020784e+36 3.3724079e-16
-97705.781 0.38007715 -4.5901711e+23
7.7415255e+33 -1.2933361e+38 -3.140722e-25
-1.204825e-27 7.1484809e-38 1.8722376e-32
-7.7430327e+33 1.0955023e+17 -4.1752297e+11
-1.5999657e+09 1556.8373 -9.2701011e-05
2.7469737e+19 1.9273398e+30 -4.1753385e+11
-3.084795e-25 24910.867 -3.0672832e-28
382.28809 8.0841153e+36 -8.8408995e-11
-1.3899395e-09 1.8381568e+24 2.8689481e+22
1526.356 7.1806704e+21 2.1079712e-17
0.092886396 -0.38014284 -6221.355
4.6919355e-30 -3.2199886e-22 -5.5252695e-12
-1.4873723 5.5319195e-12 5.0257137e-24
nan -1.795238e+21 nan
1.8776323e-29 -5.2732913e-18 3.3722581e-16
-2.2779423e-05 1.8815767e+27 1.1980669e-30
-3.1003124e+34 4.5738762e-36 4.4825013e+20
4.8218067e-27 1.204297e+29 2.1582413e-14
4.9565824e+35 -1.8817158e+27 -1.792998e+21
-1.8027497e+24 nan -388.77026
3.0975419e+34 -4.4865391e+20 -2.3172446e-05
7.1792135e-35 -1.1710345e-33 1.0687444e+14
7.7056469e-26 -1.9186251e-29 1.0944443e+17
-5.0482522e-21 1.7868697e-38 7.487936e-32
-0.02329251 4.5744387e-36 -1.2864203e-21
-6102.5835 -1.1216426e+20 -9.0530065e-08
2.219087e-08 8.8483512e-11 -9.2691014e-05
1526.4229 6.8461757e+15 -6.679696e+12
-2.7483036e+19 -1.0201612e+08 1.6699248e+12
-1.9254007e-26 -389.16257 4.8132384e+29
5.0456507e-21 -2.0206694e+36 -8.6330086e-14
-2.8826441e+25 -2.2121848e-11 -1.04367e+11
-1.9257777e-26 6.529282e+09 3.4531866e-13
-8.0819107e-20 7.6752244e-29 4.590299e+23
381.65344 -8.4390336e-17 -1.0192522e+08
-95.412796 4.9122654e-27 -7.8861299e+33
-1.8473856e+27 7.6754543e-29 -1.9253273e+30
-1.263884e-21 4.8179797e+29 -2.0188543e+36
-0.00036421005 -1.6715758e+12 1.7510793e+18
0.001455739 1.671578e+12 -3.4533959e-13
4.4843423e-36 2.8718354e+22 -1.44843e-06
-0.37374729 1.2334788e+32 2.0101713e-23
-7.2025064e+24 -8.440009e-17 -1.3490021e-15
-2.6258071e+13 -1.2335116e+32 -3.4534449e-13
3.0850462e-25 4.4874961e+20 2.6719757e+13
2.6871497e+16 1.9183958e-29 1.8361726e+24
1.0016354e+08 2.1599335e-14 -1.2617098e+35
7.2198354e+24 -0.094995812 25480072
1.4231249e-06 99612.312 1.9170801e-29
7.0126457e-38 1.6322084e+09 -2.8690337e+22
-1.0994462e+20 -3.4565615e-13 6.5228867e+09
95.34465 1.8738068e-32 -5.1461721e-21
5.2926502e-15 1.1711417e-33 -5.7944912e-06
-4.2931277e+17 1.882014e+27 7.5208102e+27
3.0852296e-25 -2.8593336e-37 -4.4827367e+20
-0.00036395667 -1.6715758e+12 1.7510793e+18
5.1718239e-18 -1.1217781e+20 398149.59
-0.0014548706 8.0489252e-23 1.2564667e-24
1.9384188e+33 1.9735915e+33 3.0806626e+31
-2.6235812e+13 -1.2335116e+32 -3.4534449e-13
-4.9360739e-24 -7.6765606e-29 -1.8283761e-35
-3.1707509e+37 2.8721398e+22 2.8019068e+19
-1.1517782e+26 -7.1804751e+21 -6.6802239e+12
-4.5020378e+23 6377576 -388.84103
1.7581541e+21 7.8567027e-26 -4.5699402e-36
-1.1497971e-33 4.1779295e+11 -4.17427e+11
-2.8202133e+22 -3.6239999e-07 2.058431e-20
-1.6790454e+15 1.6321057e+09 -1592635.2
9.0931833e-05 3.2187832e-22 398143.38
4.29382e+17 -25501950 -5.024997e-24
-2.9519586e+28 -0.095003173 24884.064
1.1486616e-33 -1.0445798e+11 1.9170827e-29
-3.4677317e-10 -7.8586841e-26 4.9288308e+32
-3.3093334e-16 389.14496 1.2864879e-21
3.082476e-25 -3.6242088e-07 -24884.568
-3.0794983e-25 -5.0296221e-24 9.2702379e-05
0.0014548386 -1.3185073e-18 6.6794559e+12
-2.1178961e-14 6.0805163 -8.6333779e-14
1.6774193e+15 2.1602862e-14 -1.2562431e-24
-0.093134843 2.1096643e-17 1.2268021e-27
1.1266117e+23 -3.0832741e+31 -7.3443648e+24
99978704 -6376086 -6.8399818e+15
3.2296515e-19 4.3816902e+17 4.377397e+17
1.4897863 7.4952223e-32 -0.094927467
2.5597878e+10 -5.530514e-12 -2.8689889e+22
4.193702e+14 1.7947572e+21 3.2934387e-19
-2.2722972e-05 9.0612438e-08 1.3489942e-15
1.9791449e+36 -7.7086037e+30 1.6308177e+09
1.2672748e+38 -3.4566767e-13 -8.2335367e-20
1.676861e+15 -389.19019 3.5364681e-10
3.1551127e-22 -1.176259e+26 4.0770979e+08
2.7495424e+19 -1.176261e+26 4.3779409e+17
2.8683899e-34 2.8044339e+19 6.8402449e+15
97643.5 -1.0447396e+11 -1.317376e-18
1.9810121e+36 1.6324093e+09 -4.7005687e+26
-1.8862524e+30 1.3503093e-15 3.6212978e-07
-7.0057328e-38 -3.1575768e+34 4.3778718e+17
24402.904 1.2281178e-27 7.3443515e+24
-1.7190315e+18 1.2877855e-21 -2.9250246e-34
1.2925763e-18 -6376790 1.9172151e-29
-6.8685309e+18 1.8300593e-35 0.094936945
-25023028 24.326464 -1.4145511e-09
1.9374173e+33 4.0813085e+08 -6.6803749e+12
-381.83115 -2.319974e-05 -8.2341487e-20
-2.1672121e-11 1.5196369 4.8124273e+29
-4.6208644e+26 9.2757553e-05 2.0586352e-20
4.6116583e+26 1.0198867e+08 24.30044
-5.9704924 -2.2650076e-08 -1.2269219e-27
4.8169153e-27 -1.4496734e-06 -97.20414
1.2626595e-21 1.5201272 4.9075307e-27
-3.0966798e+34 -7.8590385e-26 7.8862308e+33
2.6851279e+16 -6.5291366e+09 6.8406078e+15
4.2897477e+17 8.438847e-17 -3.067022e-28
2.5598411e+10 -5.530514e-12 -2.8689889e+22
-2.9383141e-31 -3.219176e-22 -7.8866313e+33
5.9501982 5.0299814e-24 0.094926916
1.3222085e-15 2.804413e+19 -1.2034009e+29
-0.00036351048 -1.8739184e-32 5.5254703e-12
4.1006521e+11 1.1993423e-30 7.7010473e+30
-1.4912112 2.3198781e-05 -4.5711351e-36
-1.9808357e+36 -4.0811766e+08 -5.7944671e-06
-25009596 24.326464 -1.4145511e-09
7.7162097e-26 -3.0114722e+28 -6.5238006e+09
7.0423091e+21 3.2335756e+37 -5.6580065e-09
1.1227226e-36 1.9274007e+30 -1.1427299e-36
2.9346468e-31 -1.882232e+27 -0.00037083766
-390794.47 3.5402167e-10 7.1413471e-38
1.1804701e+29 2.998663e-31 1.8721484e-32
-2.8691227e-34 -5.6646177e-09 1.7932054e+21
2.5559781e+10 -3.1584067e+34 0.0014833964
7.1920211e-35 -7.8539362e-26 0.00037082884
-2.0222391e-20 0.0059369272 1.1206302e+20
-0.0058302325 nan 1.203268e+29
2.6885529e+16 24901.678 2.0185591e+36
-0.093337469 -1.2330594e+32 6.8397961e+15
-2.121435e-14 2.9272059e-34 1.1699704e-33
1.1827723e+29 -1.3823484e-12 -1.7931794e+21
2.954108e+28 -1.1434532e-36 -3.0673564e-28
-4.0052522e+08 1.9729974e+33 2.6718008e+13
1.8477544e+27 -1.0952346e+17 1.261721e+35
1.2337271e-24 -5.7984789e-06 1.9629631e-26
2.8733908e-34 -4.6840882e-33 -5.395937e-15
-4.8393889e+32 -6.5287276e+09 -3.0807966e+31
-1.7501835e-38 -6.5288325e+09 -7.3128806e-35
-7.007712e-38 0.00037112238 8.0405487e-23
-1563969.6 1.171059e-33 -1.872114e-32
1.0734935e+17 0.09500806 9.2703027e-05
1.2374134e+35 -2.3195358e-05 -1.917081e-29
-3.0809766e-25 nan -4.6803733e-33
-1.0484155e+14 4.1785799e+11 -3.1408877e-25
0.37250936 -4.7967892e-30 1.8721167e-32
-7.0405432e+21 -3.4564924e-13 6.8402111e+15
-1.1209277e-36 8.2410033e-20 2.0100099e-23
-1.2683504e+38 -9.0610044e-08 -3.293454e-19
4.7223e+29 -2.2652836e-08 7.171974e+21
2.9392366e-31 -2.7385377e+16 -1.0437391e+11
-5.1678696e-18 3.0110552e+28 -4.7929242e-30
-4.48237e-36 -5.051739e+35 8.6341118e-14
5.9552131 -8.0480341e-23 4.1750659e+11
1563934.8 -3.1437653e-25 -0.0014832945
1.8456155e+27 -1.176228e+26 5.0473838e+35
-1.1515184e+26 -1.8378605e+24 -7.0047066e+18
-2.0707749e-17 2.0603198e-20 -0.094930731
-6104.2744 -5.6633893e-09 -1.872185e-32
-0.023296377 7.010954e+18 9.2705675e-05
7.5605755e+30 -8.2413064e-20 -1.0688805e+14
-2.0679146e-17 -3.0701439e-28 -7.5211307e+27
-4.8089465e-27 -1.9188436e-29 -1.6309903e+09
-6082.7939 -5.5307096e-12 2.010351e-23
2.6741622e+16 2.8593192e-37 -1.1208128e+20
9.1001544e-05 4.3818985e+17 3.0675642e-28
-3.1576827e-22 -389.19312 4.7930765e-30
0.37260067 1.4158753e-09 -1.0945437e+17
3.0730266e-25 -5.0520285e+35 3.3728243e-16
1.233691e-24 -97.299141 5.3964829e-15
4.1983376e+14 1.4159705e-09 1.6700072e+12
23.905779 -3.1577236e+34 1.068805e+14
-8.0995102e-20 6.0816264 -3.1545661e+34
-2.946063e-31 389.23462 -0.023733607
-4.7081182e-30 -4.7977232e-30 -1.8803647e+27
-1.2926326e-18 1.2626734e+35 2.6717362e+13
-1.2698956e+38 1.8817569e+27 -4.0770227e+08
-7.0117937e-38 0.00037112238 8.0405487e-23
-3.2342134e-19 3.2962571e-19 1.2920921e+38
-1.1211471e-36 8.2410033e-20 2.0100099e-23
-1.2683504e+38 -9.0610044e-08 -3.293454e-19
1562478 -3.1437653e-25 -0.0014832945
1.7188634e+18 -4.6845944e-33 -3.6213061e-07
1.1206891e-36 -1556.728 -1.8282932e-35
-0.02326588 7.010954e+18 9.2705675e-05
7.5605755e+30 -8.2413064e-20 -1.0688805e+14
-7.5230296e-29 -4.8179275e+29 5.7944467e-06
-4.4901767e+23 2.7386816e+16 nan
-3.1563365e-22 -389.19312 4.7930765e-30
-0.093150169 2.8044832e+19 7.4884368e-32
-1.1537381e+26 6.5298575e+09 -1.8282869e-35
1.9814049e+36 -2.319928e-05 3.0084197e+28
1.8853261e-29 -4.2795477e+14 -3.0806416e+31
-1.1501214e-33 1.7529657e+18 2.9252041e-34
6110.2339 -1.1488399e+23 -3.4536835e-13
7.2156198e+24 -1.0448828e+11 -3.2935845e-19
1.7161352e+18 5.0530066e+35 -398214.03
8.8663555e-08 -3.6239945e-07 1.83597e+24
-25038702 -1.1435325e-36 -1.8800317e+27
4.5087842e+23 -4.1784669e+11 -1.6700081e+12
1.8815485e-29 4.5744541e-36 -0.37971655
2.6216164e+13 -1.4497067e-06 -6.8402879e+15
3.309146e-16 1.2876018e-21 -6.8402954e+15
1.8817681e-29 -1.7526739e+18 -1.3173713e-18
-1.0235066e+11 -1.8738019e-32 1.286489e-21
3.2283448e-19 -4.7048233e+26 -1.4484581e-06
1.2613355e-21 2.2652996e-08 -1.3489831e-15
-3.4688372e-10 -1.7947752e+21 -1.710131e+15
-5.3053172e-15 1.7527179e+18 1.2564065e-24
nan -1.1992615e-30 -1.8362617e+24
-3.5615227e-07 -2.3197181e-05 -1.8801909e+27
2.1712571e-11 1.4158393e-09 1.1752126e+26
4.2987816e+17 -1.7948049e+21 0.00037080326
-8.4771166e-14 -1.9648994e-26 -1.8802791e+27
1.0493347e+14 -398530.03 398165.06
-1.0495747e+14 4.178926e+11 -5.2696935e-18
7.7489259e+33 -3.0701993e-28 6370674.5
1.1222276e-36 -6376558.5 4.5905551e+23
-1.7194494e+18 -1.1763247e+26 -7.7021123e+30
-1.146554e-33 -1.2281793e-27 -5.5260744e-12
2.6836873e+16 1.7118436e+15 2.9380134e+25
2.8650558e-34 6.8475941e+15 -1.9169932e-29
-5.4386357e-12 -3.1578355e+34 -1.7932025e+21
-1.7571469e+21 389.23624 1.0688399e+14
2.6199292e+13 -1.4497067e-06 -6.8402879e+15
5.5518257e-09 -3.0109733e+28 -398136.59
-1563014 -1.0697039e+14 2.7362079e+16
3.2292482e-19 -4.7048233e+26 -1.4484581e-06
nan -1.1992615e-30 -1.8362617e+24
-3.5615227e-07 -2.3197181e-05 -1.8801909e+27
4.3006178e+17 -1.7948049e+21 0.00037080326
-9.1022346e-05 2.0603486e-20 -4.1750721e+11
7.74055e+33 -3.0701993e-28 6370674.5
2.2228008e-08 -3.5399594e-10 -9.2704271e-05
-5.9727798 24910.494 -1.3491412e-15
-6112.1108 7.1491271e-38 0.094931908
-4.4988438e+23 -398588.31 1555.4325
-2.8693884e-34 -3.2971729e-19 -1.2620234e+35
-1523.5817 3.0119112e+28 4.5712636e-36
2.2663333e-05 -1.2936209e+38 -99554.07
-3.3848887e-13 -1.8304093e-35 388.88461
7.5119122e-29 -1.7875257e-38 6.8411243e+15
1.9220684e-26 -6.6879095e+12 6.0763655
1.2583857e-21 1.4151479e-09 1.348884e-15
25063498 -1.7946191e+21 -1.87219e-32
1.1477716e-33 -7.1476227e-38 8.8411056e-11
1.801555e+24 -7.3191846e-35 3.3726163e-16
2.9393819e-31 3.0109658e+28 -3.2163682e-22
1.2616413e-21 -6.685848e+12 7.5217357e+27
-1.0224847e+11 4.7047694e+26 1.6309135e+09
0.0014546227 6226.8076 -1.1752483e+26
-1.0745336e+17 -1.3826379e-12 -5.3964566e-15
5.0577631e-21 -1.069761e+14 24.303677
-7.7023239e-26 9.0612652e-08 -6371182
4.1919502e+14 -7.4953134e-32 -6.6806764e+12
-8.6736028e-11 7.3198997e-35 -5.269629e-18
-3.0876405e-25 0.38007575 1.5189098
-2.8845796e+25 -1.7527784e+18 -8.2347019e-20
-2.018633e-20 -5.0520971e+35 3.3726488e-16
4.7236487e+29 99634.859 -2.9382569e+25
380.51572 -7.1795051e+21 -1.971805e+33
-1.3577884e-12 -2.0121303e-23 -2.0191259e+36
4.5084786e+23 -3.539791e-10 5.2701497e-18
-2.6232884e+13 -1556.8602 7.8531103e-26
2.8704695e-34 -1.0953136e+17 9.0522825e-08
1.0016956e+08 -4.080569e+08 8.2339193e-20
1.2615452e-21 -6.685848e+12 7.5217357e+27
-1.0224847e+11 4.7047694e+26 1.6309135e+09
0.0014546227 6226.8076 -1.1752483e+26
2.9409028e-31 -1.3502472e-15 1.1209399e+20
-2.9414315e+28 -3.5396275e-10 -1.2565623e-24
-0.023214173 -1.9649259e-26 -1.292121e+38
-1.1270036e+23 24.324884 -1.2322755e+32
-1527.9963 -2.2123471e-11 -2.3178573e-05
-9.0870046e-05 -97.305428 -3.2163636e-22
1.3902486e-09 -4.9127407e-27 2.158562e-14
8.0776022e-20 2.9409709e+25 -1.3491151e-15
1.9237379e-26 1.3188353e-18 -7.8870658e+33
-8.0760002e-20 -1.9738965e+33 -3.1413994e-25
7.685637e-26 -8.6390395e-14 7.171773e+21
-3.0293043e+31 8.2388423e-20 24.298948
-4.5128767e+23 7.6738185e-29 8.4306559e-17
-5.6964859e-06 2.1600253e-14 2.6719178e+13
-4.5112925e+23 -1.2627634e+35 4.1751003e+11
2.9400931e-31 6.8454832e+15 -1.963034e-26
-3.2350031e-19 -1.3183944e-18 -1.9717442e+33
-7.8851772e-23 -6375482 1.1208113e+20
3.9968461e+08 -3.1433684e-25 3.3728193e-16
-1.7166462e+18 3.0108172e+28 -2.0585047e-20
-95.334175 -1.9731754e+33 -2.8018846e+19
-1.0487356e+14 -4.3815669e+17 -2.3177594e-05
-1.1482637e-33 2.0119222e-23 1.8363198e+24
3.0056303e-28 3.1573118e+34 1.261742e+35
-1.0748439e+17 -5.2742719e-18 1.1700223e-33
-1526.8019 -7.0106901e+18 3.3725864e-16
-4.9460601e+35 1.6715434e+12 9.053938e-08
4.2948824e+17 7.8937668e+33 -8.8409877e-11
-1.9822349e+36 -6.5295283e+09 7.1733143e+21
-4.5849533e-33 2.1604636e-14 7.3451257e+24
-1.3875475e-09 -7.1793965e+21 4.4831065e+20
1.2039394e-27 3.3757307e-16 1.8284218e-35
1.120766e-36 -2.8044572e+19 -4.4831068e+20
1.3557431e-12 0.0059387027 -1.0438126e+11
-3.3084522e-16 3.6247215e-07 7.3450323e+24
-1.5993962e+09 97.300804 4.5906456e+23
-7.344772e-32 1.9650191e-26 8.2340117e-20
-1.3568175e-12 7.8940954e+33 -1.1983062e-30
0.37250358 -24909.412 -1.3815534e-12
2.1680028e-11 -3.2195587e-22 1.8282789e-35
-5.4334957e-12 4.5752355e-36 4.4832279e+20
-4.9520616e+35 -2.6746921e+13 1.8804049e+27
-1.7180725e+18 3.0108172e+28 -2.0585047e-20
97622.195 2.011964e-23 -24.300245
5.2993731e-15 -0.023753123 1.6307676e+09
5.6865961e-06 -5.150808e-21 -4.3782673e+17
6235138.5 1.0202453e+08 97.207634
-1.388597e-09 -7.1793965e+21 4.4831065e+20
-7.3482632e-32 1.9650191e-26 8.2340117e-20
-1.3568175e-12 7.8940954e+33 -1.1983062e-30
8.8811774e-08 -24.32638 1.9716091e+33
-5.4304877e-12 4.5752355e-36 4.4832279e+20
2.8149211e+22 1.1438548e-36 -2.8021826e+19
3.9874922e+08 1.6718454e+12 1.0945629e+17
2.1693503e-11 -2.9286861e-34 7.1737298e+21
5.547828e-09 -398633.81 4.378625e+17
-3.1621762e+37 6.6880385e+12 8.6350117e-14
-1.0234225e+11 -1.2929629e+38 -3.1542593e+34
-7.7565002e+33 -3.1568199e+34 1.793131e+21
-24459.113 -5.1498132e-21 2.6719757e+13
2.1718896e-11 2.0117144e-23 0.00037079118
1.7964924e-35 -2.8039317e+19 7.1411834e-38
1.3254121e-15 -0.00037109424 24.302277
-3.3908607e-13 -2.1601754e-14 1.3814087e-12
-1.4214593e-06 -3.5392392e-10 5.047326e+35
-3.156523e-22 7.7079249e+30 -1.7100569e+15
-2.0684389e-17 3.5393957e-10 -5.5252729e-12
-6.3997839e+09 1593991.2 2.8693901e+22
-1.971856e-23 1.1436392e-36 2.6095311e+10
-2.9535607e+28 1.2044059e+29 6.6804405e+12
-0.37267852 -1.0201721e+08 0.02373378
-1.0999865e+20 -3.0832983e+31 -2.8019719e+19
-1.3231924e-15 7.148005e-38 -8.041508e-23
1525.116 4.3818796e+17 8.6343042e-14
0.023300948 1.1711867e-33 nan
-4.4886984e-36 -4.6847402e-33 -5.1468333e-21
2.2762668e-05 7.0112585e+18 -6.6803765e+12
4.5054522e+23 2.1606015e-14 25483668
6.4031846e+09 1.0698888e+14 -0.023734784
-3.1565869e-22 -5.0524306e+35 7.3138524e-35
2.2732705e-05 6.6868761e+12 -1.2619539e+35
2.2732698e-05 1.965099e-26 1.9632918e-26
3.9996656e+08 -1.1215286e+20 -2.1078157e-17
24463.734 -1.1435891e-36 -1.5188601
-1.3900119e-09 -1.1761362e+26 -398158.34
-0.37280381 -1.0201721e+08 0.02373378
-1.3240606e-15 7.148005e-38 -8.041508e-23
5.2913089e-15 8.4392857e-17 -1.6310958e+09
2.8711982e-34 1.6324366e+09 -2.2103543e-11
-4.4018316e+20 -3.2195691e-22 -9.2704664e-05
6.4106051e+09 1.0698888e+14 -0.023734784
8.8850022e-08 5.2750106e-18 2.6096579e+10
1.6768423e+15 3.1442282e-25 -1.6700701e+12
1.2088107e+32 -25509594 -1.0438489e+11
-2.8845658e+25 -0.095031247 -6371140.5
-1.2095538e+32 -1.9652859e-26 2.9957706e-31
7.1684458e-35 6.0798159 1.9172004e-29
1.127266e+23 97.279861 2.6719774e+13
-9.1025009e-05 -5.0512446e+35 -6.8400361e+15
3.3898473e-13 1.8736215e-32 -1.9631648e-26
-1.8838431e-29 7.5270071e+27 1.3490765e-15
nan -3.2188693e-22 1.2921529e+38
nan -1.3501771e-15 7.6681629e-29
-1.2322006e-24 -2.6116325e+10 1.3489986e-15
