# .PCD v0.7 - Point Cloud Data file format
VERSION 0.7
FIELDS x y z
SIZE 4 4 4
TYPE F F F
COUNT 1 1 1
WIDTH 1570
HEIGHT 1
VIEWPOINT 0 0 0 1 0 0 0
POINTS 1570
DATA ascii
50.804749 2.9641371 -0.17161655
49.496876 5.5805922 -0.18547374
56.593704 9.7221346 -0.20566458
52.747932 6.4767103 -0.20609149
51.5979 2.3104835 -0.20745227
54.76152 7.8431711 -0.20813416
51.063301 4.0665226 -0.21949594
51.199638 6.0914612 -0.22250524
58.47702 7.2142549 -0.2469019
53.049725 8.2075109 -0.25144178
49.22369 2.9643404 -0.25901422
51.502533 5.2348471 -0.26105052
58.444939 7.1014547 -0.26752838
49.657093 4.5720806 -0.28685662
51.447712 7.673945 -0.29068521
54.927448 8.1928616 -0.29581535
52.034634 8.5545492 -0.31824324
55.530735 6.6008005 -0.3267321
49.979836 4.030961 -0.38043803
49.840984 12.89292 0.30351812
50.821781 13.723043 0.2972756
57.93026 12.804288 0.29493546
49.10799 12.679182 0.29426846
51.669449 16.289625 0.29410616
57.084602 10.825169 0.29408637
51.75983 15.245485 0.29165742
57.823421 15.788532 0.28961864
50.787437 15.563488 0.28746143
53.412323 15.027603 0.28697959
57.474041 11.826031 0.28667805
51.607964 10.777703 0.28661838
55.316017 15.233087 0.28533414
50.380745 12.973133 0.28175411
55.050934 15.112076 0.2780242
50.810802 10.689529 0.27650136
54.141109 13.382522 0.27536401
57.494278 11.674792 0.27251342
49.354355 15.001552 0.27192917
54.118038 15.446447 0.27166986
57.251411 15.39172 0.26060143
53.439999 17.223852 0.25789803
57.075291 12.143662 0.24937068
57.231934 12.337664 0.23458038
57.180027 11.84805 0.23088038
58.123653 11.605436 0.22639965
57.464184 15.613523 0.22371414
50.590984 15.458909 0.22292478
58.762299 10.746417 0.21863806
51.150543 14.034986 0.21297659
54.397385 14.262481 0.20182215
58.72023 10.915252 0.19141245
56.525928 11.237675 0.18496051
57.310432 16.697968 0.18231012
52.54644 14.365233 0.17460565
56.895138 11.741526 0.14894345
58.896259 10.993593 0.14785112
57.582607 11.350291 0.12232248
56.802986 11.239277 0.11780337
50.359734 10.694871 0.076795511
57.869179 11.611362 0.069773704
57.865646 11.04418 0.059776459
54.372635 10.70453 0.058771942
52.002274 12.931423 0.055763315
50.525646 14.353435 0.050128605
50.638924 11.811573 0.036666673
52.68074 11.042334 0.036578268
54.166908 11.371191 0.031438924
51.350796 11.241469 0.0088156518
50.534069 11.10217 -0.010404259
50.493843 10.806992 -0.018964445
49.313168 12.348146 -0.025419336
51.874428 11.517843 -0.068628803
54.41135 12.093291 -0.090527259
58.55801 11.53178 -0.13867752
56.540615 22.780439 1.8600636
51.082359 21.219488 1.8598485
51.674442 21.508703 1.8597444
52.397324 20.911278 1.8402351
52.001808 20.783632 1.8303355
52.745083 22.346954 1.8293852
52.587925 21.195473 1.8256898
50.606823 21.654501 1.8222336
53.390785 22.390787 1.8125341
54.208248 21.649099 1.8010877
57.383816 21.990553 1.7940321
54.031273 21.820869 1.7927184
52.869968 20.959927 1.7840384
50.924831 22.211582 1.7795018
53.279762 20.732677 1.7755231
50.837872 21.982878 1.7748168
50.415756 24.697996 1.7687383
57.634243 22.199308 1.7679002
51.077129 20.853964 1.7562387
51.127369 21.184343 1.7533877
49.406803 28.153805 1.7399864
49.209209 28.282211 1.7264918
56.962708 22.635515 1.7025155
51.497196 21.869867 1.6369165
51.361366 21.353842 1.6228327
50.610088 20.824724 1.6007932
49.90313 21.126595 1.5998604
52.349033 22.415754 1.596316
57.584362 22.676369 1.5494213
51.640144 21.07725 1.5222588
49.901047 20.761782 1.5136055
51.644398 21.069809 1.4870667
50.532822 20.803394 1.4705184
51.035984 20.885427 1.4458803
52.26046 21.716686 1.4269694
49.622856 22.175684 1.3791113
52.227345 20.932552 1.3607112
49.546047 20.697029 1.2622399
50.489902 21.542711 1.2485855
50.877888 20.914251 1.20886
50.926991 23.378046 1.0225865
51.435398 20.871197 0.88458854
52.27216 20.780693 0.85718364
49.588863 22.262918 0.72763985
49.610825 21.124971 0.44807145
51.391323 33.185078 2.4270718
49.176022 35.95248 2.3279114
50.11565 31.056509 2.2927675
49.400459 31.227043 2.1506848
53.672497 43.383938 3.1682403
59.531075 0.62819266 0.18391417
67.873421 7.5079274 -0.44209078
67.28109 5.582942 -0.44760269
68.797493 8.5564051 -0.44784281
68.907654 6.516324 -0.45103973
67.011642 9.7407541 -0.45207968
68.874222 8.7483273 -0.45534885
65.357704 9.7846432 -0.4554154
68.528175 6.2065735 -0.45630252
66.836655 9.4735489 -0.46371943
68.444435 7.5267239 -0.46791831
66.534683 6.2521172 -0.46862671
66.208122 7.2240791 -0.47082937
69.015068 7.9552159 -0.47372517
66.679932 1.6769012 -0.47539061
67.828247 5.9334645 -0.47707093
67.99926 6.194303 -0.47802076
66.455078 5.312593 -0.47866562
68.842148 6.0631175 -0.48104978
64.443794 6.563602 -0.4853656
67.969406 5.313168 -0.4912411
65.797768 7.204452 -0.49430016
67.404152 9.2290783 -0.49432027
67.598671 7.7188549 -0.49541906
66.39817 6.631341 -0.4982774
65.295326 4.5913811 -0.50623339
64.806824 5.8994493 -0.5138731
67.929672 8.7368546 -0.52304494
66.937241 5.4435449 -0.52564394
67.600182 7.1248636 -0.52969599
69.03537 8.4975872 -0.53045535
66.791931 10.134239 -0.53829849
68.607353 8.4424763 -0.53908104
67.897957 8.2620735 -0.54885846
65.203796 4.3867545 -0.55170947
65.936348 8.5339985 -0.55874777
66.153229 6.6730838 -0.56280011
65.502098 6.0494967 -0.5665732
66.701027 5.4927044 -0.57998413
64.516304 7.8194308 -0.59382963
67.037262 1.5662873 -0.60336959
66.087234 6.5440364 -0.60467446
65.77565 7.4049678 -0.60923421
65.81945 6.6748509 -0.61614662
66.717644 8.7248917 -0.61636961
65.482971 6.4755983 -0.61690319
66.924919 5.6475387 -0.61694747
65.325645 7.199502 -0.64031297
66.807182 6.4140692 -0.64057904
67.731895 5.752409 -0.64354825
66.215088 8.279521 -0.64522344
66.762367 5.5811205 -0.64910078
66.525879 5.3848 -0.65004158
68.728279 6.1202068 -0.65049589
68.618446 7.1821308 -0.65564466
66.21904 6.6948938 -0.65756202
68.934143 8.5311327 -0.65859669
66.159111 6.1570988 -0.66695946
68.323433 3.2600038 -0.67347467
68.363815 6.0576916 -0.68594331
66.019051 5.4344935 -0.68947208
66.63382 7.7328949 -0.70033181
65.095795 5.8049588 -0.71368724
68.599136 7.4593163 -0.71591944
67.753502 6.7745061 -0.7199682
67.508583 9.3334351 -0.74047053
66.84404 7.4088917 -0.74163014
65.241577 10.127605 -0.74185097
67.479637 8.7759037 -0.74772358
65.817184 6.4783516 -0.74867964
68.65699 6.0437794 -0.74957371
67.931168 7.0659304 -0.75368959
68.833954 7.2543612 -0.76283693
65.728119 7.9768825 -0.76405549
66.922966 7.9873371 -0.7642417
65.572624 7.2965317 -0.77058864
67.585724 7.181067 -0.7736358
68.002777 7.9378285 -0.78483135
66.567055 7.1111293 -0.80555856
68.242157 5.9438658 -0.80729789
66.61245 5.7342949 -0.82220757
67.663109 8.5438948 -0.82784194
66.933304 8.397315 -0.83812445
67.662537 6.4703612 -0.84239447
67.888107 5.897542 -0.84637016
65.636406 6.171381 -0.86960101
66.361198 8.034893 -0.87263286
65.505653 7.165482 -0.8766464
68.216805 7.8152862 -0.89060515
67.356636 8.6539154 -0.8961218
66.99588 5.8015685 -0.89779907
65.768051 8.0964069 -0.93029046
67.074974 8.4584713 -0.93771738
67.663422 6.4673314 -0.93968499
66.992416 6.7368903 -0.95565206
67.623375 7.2369986 -0.96805388
67.345459 6.3383451 -0.97537941
67.936653 7.4319153 -0.98534817
68.901276 7.845808 -0.99165809
66.485687 6.346231 -1.0265267
68.171463 8.244916 -1.048694
67.136368 6.4321184 -1.0570459
68.619629 6.7599525 -1.0883987
67.992065 6.0552983 -1.096256
67.218033 7.3023453 -1.1147337
66.996223 6.9997234 -1.1305869
68.742447 7.6701441 -1.1520826
67.013191 5.8990302 -1.1859627
67.593369 6.2698612 -1.2101769
67.425194 6.187571 -1.240388
68.925842 7.7072964 -1.316258
64.030045 12.333812 0.1865741
64.72084 12.111503 0.18549646
60.925598 11.450653 0.18548925
62.770752 11.604389 0.18544063
65.327705 12.078995 0.18460746
66.111816 10.967174 0.18434091
68.215668 12.514791 0.18240829
65.548759 11.221597 0.17898248
61.107758 11.726584 0.17781207
68.025673 12.083908 0.17704891
63.259827 15.219678 0.17649078
64.121475 12.08091 0.1745515
64.650414 10.979533 0.17447253
59.339043 10.870455 0.17224035
60.457153 11.00108 0.17222378
66.925034 13.016858 0.17168766
62.900719 10.895052 0.17037173
68.236633 11.380992 0.16964035
61.918137 12.173228 0.16955113
60.456932 10.68778 0.16916496
62.505753 13.000111 0.16314164
64.846497 12.73108 0.16224453
63.227844 12.404771 0.16093884
66.875893 11.616488 0.16084212
67.254883 10.893399 0.15927427
64.47052 11.251683 0.15787339
63.727821 12.209275 0.15696855
68.340912 13.830153 0.15507707
59.137871 12.057508 0.14853169
61.935272 12.427422 0.14741214
65.223976 12.834186 0.1450616
61.228851 10.736146 0.14415869
63.102303 10.823268 0.14294516
62.750107 12.483547 0.14264873
68.282303 12.219395 0.13880318
61.957985 10.947809 0.13717139
63.468956 12.694871 0.13705976
61.037922 10.694972 0.13641188
62.601166 10.913916 0.13606808
63.985733 11.27746 0.13394777
65.631638 11.504341 0.12701616
60.211052 11.832123 0.12570244
65.123161 14.730871 0.12529087
68.892967 11.917008 0.12451205
64.349594 10.68342 0.12265761
68.436569 13.883257 0.12224723
68.935036 12.322783 0.12195694
66.640656 10.976151 0.1176945
65.925743 10.969315 0.11207033
64.107933 13.618081 0.11195719
63.116951 11.219025 0.11073334
63.703686 11.96032 0.10784194
60.752335 10.721354 0.10682754
60.713196 10.859667 0.10573891
67.661469 11.221149 0.10414259
63.418221 10.98587 0.10396164
63.824722 12.414836 0.10093844
67.729729 11.416933 0.098902844
67.106621 10.753272 0.098253183
60.142776 10.965931 0.096975736
63.648388 11.658222 0.087459385
67.696274 10.932042 0.085701294
65.558823 11.018567 0.082418986
60.697144 14.170649 0.078882761
64.172615 15.137536 0.075357087
63.42131 11.275203 0.070381343
64.353706 10.879514 0.066577382
66.187256 11.788966 0.059883352
66.793144 11.121279 0.04615248
67.763268 12.813985 0.043193411
63.913181 11.965336 0.03512276
64.465515 12.587542 0.030349936
64.634903 12.660811 0.028864969
64.819046 13.831509 0.022541992
62.984146 11.276011 0.0096316589
63.438229 10.793412 -0.0068427543
65.904297 10.836542 -0.007052049
66.744957 11.64738 -0.0080879824
62.804741 10.789654 -0.0087578269
68.568291 12.114552 -0.013792505
65.865112 12.40961 -0.017159708
61.085831 13.94771 -0.018730845
62.677246 12.057785 -0.027585691
64.794411 10.769171 -0.029885642
68.781555 14.549479 -0.036859747
67.765167 11.01789 -0.038650889
61.962879 11.755718 -0.039692603
61.263229 13.96714 -0.042020667
65.575264 10.935364 -0.044343676
63.222965 11.01665 -0.050613765
65.175438 10.682044 -0.052734166
64.493576 14.637762 -0.059704985
59.823719 10.914163 -0.076624893
66.165497 10.737775 -0.11018125
62.371967 12.488339 -0.11432592
67.638573 11.28139 -0.12679335
61.527203 12.407113 -0.22446239
67.491768 12.15729 -0.26272404
60.638897 14.53515 -0.26480427
65.477692 13.198872 -0.29073739
65.787361 11.913748 -0.32497188
61.070984 14.61167 -0.4470523
63.15065 22.22855 2.9036913
65.008949 21.407951 2.90255
68.010727 22.026192 2.9017773
65.884109 21.460806 2.889437
59.652458 22.615156 2.8628626
68.772606 23.217434 2.8561866
63.064804 20.910217 2.846786
66.337296 21.740627 2.8442898
65.785706 21.206131 2.8416591
65.284172 24.053488 2.8349872
64.086769 21.067009 2.8268044
65.256691 20.792049 2.8230817
64.370193 21.708578 2.7895796
65.690704 24.305357 2.7881472
64.70047 21.819057 2.7807789
67.4076 21.061626 2.7731085
65.481911 22.43475 2.766674
65.876495 24.400976 2.7659776
64.421982 21.112038 2.7601502
63.454414 21.007654 2.7581041
59.250381 24.720842 2.7552905
65.486671 21.598671 2.7535579
66.861198 22.143967 2.7205322
62.58733 20.774395 2.7193968
62.920395 21.935856 2.7187574
59.97562 22.692692 2.6981497
67.058357 21.070225 2.6937969
63.95895 23.441465 2.6915445
65.806625 24.319206 2.6725321
62.643448 20.802965 2.6651387
64.378952 21.032848 2.6488843
62.329136 21.047264 2.6413195
62.847214 21.098867 2.6318164
64.810242 21.047859 2.6304393
64.804291 22.186054 2.6254344
63.165333 22.349436 2.6149168
63.511803 22.155493 2.605206
63.154926 23.885712 2.5891495
63.09391 21.307436 2.5569108
64.024551 20.978432 2.5412791
63.312664 21.488146 2.5179222
65.938446 21.36421 2.513762
62.478569 21.684944 2.5131335
63.245682 20.980452 2.5047953
63.666302 21.344719 2.4979959
62.135925 20.847036 2.49545
67.677124 21.253416 2.4595191
63.190258 21.712524 2.4579504
63.384369 22.261576 2.4562299
61.773708 24.922602 2.4527082
64.273521 21.897177 2.4351597
64.178238 21.8461 2.4345102
63.701942 22.363523 2.4084625
68.793602 20.747616 2.3682892
64.830162 21.090271 2.3667114
62.570889 21.949778 2.3495045
62.445351 20.824451 2.2951171
60.600346 21.608374 2.2666788
61.60368 22.575287 2.2582188
63.27317 21.910011 2.2551982
62.978024 21.470001 2.218466
62.494835 21.728996 2.1964765
62.47821 21.560242 2.194926
62.848114 20.782204 2.1815591
63.361473 22.130472 2.1139367
68.146454 22.012947 2.103832
68.181602 22.031305 2.0985889
64.652458 22.074886 2.0769339
62.356693 21.080271 1.992424
63.232918 21.631041 1.9521346
63.107285 21.40464 1.9302912
60.643734 21.629436 1.9068925
62.248974 21.455286 1.7478857
63.109844 21.467373 1.6695344
60.236752 20.922272 1.6666975
62.097488 21.358709 1.6622819
60.97646 31.206959 4.163578
60.646168 31.041178 4.1612411
63.735458 31.409933 4.1479216
59.35004 31.118025 4.1327157
60.520676 30.742046 4.1305046
63.004684 30.889936 4.125308
61.022846 32.206287 4.1244497
61.290359 31.364874 4.1206341
64.645287 35.024162 4.1196995
65.392799 32.222301 4.1157031
68.137016 30.780449 4.1117702
59.711807 31.277578 4.1111164
66.44062 30.771935 4.1036901
61.331688 30.693638 4.1019177
60.981571 31.528069 4.0985212
63.434048 32.345646 4.0887194
68.58091 32.135738 4.086153
60.702251 31.298666 4.0836124
61.684284 32.487789 4.0825186
68.447456 31.897764 4.0803051
68.943733 32.054546 4.0798783
60.651829 31.677443 4.0664725
60.053677 31.71587 4.0609379
59.242085 30.756081 4.0531101
66.390404 31.51228 4.0502286
66.552536 31.004978 4.0238552
67.431618 30.809273 4.014183
67.894798 31.755249 4.0099406
67.553192 30.816469 3.9803088
67.113358 30.814722 3.9689939
63.899467 33.526775 3.9566483
66.672058 31.221161 3.9315429
63.985214 33.57082 3.9300563
61.856956 30.828602 3.8765132
66.567558 31.237734 3.8041332
64.896866 34.5952 3.719902
69.676849 0.22988741 0.93984127
72.222923 7.9767537 -0.26208937
69.680153 8.2869883 -0.26354498
69.220848 7.5422635 -0.26534754
76.349022 8.9195938 -0.27969286
74.733627 9.1040134 -0.27997223
70.716148 7.8912997 -0.30808935
77.270065 7.4275398 -0.31055167
70.123123 7.6394029 -0.31106216
76.087532 8.8688383 -0.31199926
70.157349 9.9611654 -0.31275213
71.464371 10.492201 -0.31738216
70.150642 9.8580561 -0.32025993
71.777382 7.1249952 -0.32533422
70.206543 9.0352669 -0.32754743
69.710167 2.5411499 -0.33523563
69.833221 6.4059696 -0.34787989
76.926094 9.1679497 -0.34893036
72.378647 7.323132 -0.35092363
70.642593 6.7974482 -0.35315669
70.990463 10.571993 -0.35702041
72.73246 8.8380098 -0.35891277
71.31105 9.4159698 -0.35919264
69.801323 8.1096592 -0.36207989
76.592773 8.8644218 -0.36372492
77.512726 10.01185 -0.36741671
78.213486 8.8639431 -0.38886553
71.101395 10.557469 -0.39377868
76.658463 9.1664352 -0.40294778
69.436325 6.6566687 -0.40651706
72.467171 8.1174631 -0.40996093
70.82283 9.2463827 -0.41075671
69.143806 6.5060215 -0.41495699
69.452988 7.4180965 -0.41678381
69.933571 5.5003757 -0.41746944
69.232178 7.6548004 -0.41948867
69.680717 6.7098374 -0.42234278
71.106209 7.2039151 -0.42808604
69.223633 8.1887951 -0.43158519
69.943253 8.7205181 -0.43423426
70.462433 6.1232004 -0.43657646
69.524231 6.4827652 -0.43943831
69.833443 2.3969676 -0.44545156
69.595383 7.1589875 -0.44987357
69.142349 6.6737947 -0.45155859
69.764748 4.4748001 -0.4540945
69.404289 7.5960808 -0.45433903
69.689301 7.3144202 -0.45843619
69.99649 6.1703024 -0.46503335
70.072823 7.0233822 -0.47293934
69.875977 8.8797445 -0.48508662
69.106079 7.0856962 -0.4959209
69.726448 7.0463915 -0.50530213
69.79895 7.7564778 -0.50550395
69.40239 6.2422137 -0.52282584
70.554672 7.2579331 -0.52316719
71.186714 7.1965051 -0.52724248
69.394707 7.8954787 -0.53798884
74.181549 7.8192897 -0.54330331
69.240799 4.1645851 -0.56162542
70.349983 8.6087894 -0.57801616
69.990768 9.4438772 -0.59442949
69.104767 8.5962572 -0.62262768
70.259857 6.7072439 -0.63373637
69.37513 8.7736301 -0.64178109
73.67453 10.180755 -0.64631534
70.008972 8.7065592 -0.64950782
69.933189 9.2518835 -0.64971751
77.697388 10.146124 -0.6547786
70.105217 8.6335831 -0.71618587
69.444084 8.5328245 -0.71763659
69.36602 7.9888968 -0.72489637
73.819855 10.224462 -0.73794168
69.784363 8.5985212 -0.73956156
76.048698 9.179204 -0.74285829
71.60273 8.9357109 -0.75637788
69.240807 7.6500053 -0.75923413
73.018921 9.8116074 -0.78215075
69.25856 8.2192307 -0.78759253
69.841034 6.8850002 -0.79261583
70.197449 7.222374 -0.80061156
70.585693 6.9991994 -0.83668816
69.231323 7.9464588 -0.84159642
72.981789 8.9392252 -0.8617624
70.676781 7.0316381 -0.95383537
70.01358 7.0001259 -0.95409691
69.719276 8.5356073 -0.95830548
69.141373 8.3901615 -1.0041538
69.329147 7.5661054 -1.1094116
70.368149 12.776099 0.13125585
70.293961 11.567634 0.12868945
72.204887 11.380057 0.12463497
69.218773 13.339483 0.12057546
79.058067 12.692102 0.12009794
70.615494 12.411362 0.11887209
70.108032 12.056682 0.11856159
70.637718 12.16406 0.11802568
73.336784 12.2909 0.1171425
73.806351 12.843879 0.11607241
76.722122 11.566167 0.11325478
69.0952 11.921742 0.11235648
74.432938 11.553684 0.11174625
71.645149 14.561547 0.10811249
72.201569 12.077256 0.1018765
69.450516 11.870192 0.099143498
71.568039 13.267882 0.097201459
69.82254 13.931738 0.095960386
69.211082 14.353567 0.093804359
70.94603 11.239565 0.091839261
69.808495 12.680097 0.08993306
69.22731 12.10038 0.086872935
70.865532 11.071635 0.086850867
69.775215 14.830006 0.084304564
70.447021 15.554188 0.084280625
75.170837 12.617858 0.082013622
76.579643 11.366568 0.081950031
73.324219 12.653858 0.081016526
70.949005 12.680383 0.080560587
71.498131 11.03861 0.077968389
74.103691 13.074035 0.074984632
77.912781 16.784014 0.074177355
76.257011 12.165936 0.073129803
70.101875 14.04057 0.071786672
77.956917 11.275229 0.068000652
76.14164 11.905625 0.065096736
73.691238 12.40278 0.063809298
70.030235 13.732722 0.061346065
70.986023 13.045932 0.061009947
70.132881 12.392866 0.054610476
71.724106 13.919278 0.040384285
70.070732 11.81074 0.03474912
72.916946 12.979812 0.034148548
74.758568 11.813159 0.03396998
71.490417 12.29667 0.030936236
76.468452 12.497467 0.02933635
72.693344 12.311406 0.027295353
69.76474 14.204421 0.022274515
72.165825 14.457411 0.019228311
77.86824 11.692724 0.018843247
69.836563 11.262381 0.011080581
75.189568 11.699504 0.01074219
69.716202 13.233698 0.0090302126
75.332581 10.707795 0.0037139016
73.158424 11.587786 0.0011930102
74.853859 12.125725 -0.0073030018
78.651901 12.832644 -0.015566415
74.291252 12.385182 -0.020195816
71.481277 11.165633 -0.024693182
69.546684 13.86602 -0.029359123
76.108139 11.449113 -0.029872539
70.87764 12.996858 -0.033557218
73.601166 12.31797 -0.034587257
71.261307 10.691905 -0.035353679
69.634895 12.612392 -0.036917437
69.403053 11.343154 -0.03786194
73.230209 11.780053 -0.044229448
69.200554 12.421844 -0.04554959
71.710007 11.287422 -0.045643881
69.487846 11.401711 -0.046183467
73.422462 12.420946 -0.047579486
76.512894 11.362034 -0.051246122
71.578857 11.448468 -0.056607787
69.924515 14.178032 -0.061032463
71.654358 12.447664 -0.062042534
76.30204 12.390051 -0.062652782
72.140022 11.568173 -0.062859461
74.589142 11.5578 -0.069895849
73.254356 13.458197 -0.070155643
74.139656 12.042286 -0.07073348
75.426033 13.515882 -0.07521078
73.827362 12.427925 -0.080307417
75.496529 12.256572 -0.081228122
75.600342 13.645597 -0.081455685
73.155571 11.993819 -0.086831309
71.805939 11.409996 -0.087374322
74.617577 11.233965 -0.08901336
73.856628 11.491251 -0.090500943
72.4739 12.168701 -0.094654806
75.536415 11.652662 -0.097000092
74.497948 11.063269 -0.10592411
74.329163 11.811403 -0.12348093
76.933899 12.38652 -0.12894115
76.015778 11.311023 -0.12899621
75.062714 12.030306 -0.12947799
78.014328 13.207408 -0.12993608
74.556549 11.905366 -0.13088295
73.486862 11.617151 -0.13275525
70.459343 11.452434 -0.13753732
70.238396 11.013103 -0.13797496
76.034218 12.2103 -0.13818613
74.871269 11.868487 -0.14173076
71.245102 12.029737 -0.14958136
70.19751 11.28806 -0.15719874
69.948914 13.95224 -0.15770076
73.040779 11.315529 -0.15896773
69.529793 12.515262 -0.17265175
74.199326 11.536008 -0.17921999
69.087509 11.384665 -0.19329397
73.729904 10.95278 -0.20091489
74.863007 11.681131 -0.21025808
76.051071 12.353951 -0.21300434
70.055969 11.094884 -0.21628354
72.925064 11.472959 -0.21683222
73.599915 10.741057 -0.2195894
75.829788 12.063998 -0.22248422
72.956276 12.742537 -0.22430404
78.827225 11.466846 -0.23708937
73.806351 11.38687 -0.23752585
73.19426 12.445288 -0.25126234
76.937828 11.143658 -0.28766248
73.813828 11.087557 -0.30407211
74.559204 11.566132 -0.30486959
77.955574 11.652535 -0.32302773
70.871819 12.967205 -0.32487476
72.817482 11.334448 -0.3282778
69.487579 12.315745 -0.33637595
76.671379 10.7482 -0.37762201
76.851364 12.067319 -0.40503231
78.843277 11.5644 -0.40881425
76.101372 12.25192 -0.42835057
70.902473 11.494013 -0.4328889
74.747055 11.510215 -0.45106205
77.465218 14.991106 -0.46719357
72.027542 13.161788 -0.46957123
76.768929 11.159338 -0.48183528
72.677811 11.524781 -0.4857316
76.008163 11.002409 -0.50346577
75.82769 14.408312 -0.51406151
78.998589 11.640894 -0.52549899
71.541 12.294012 -0.52801234
72.085098 13.233885 -0.53476948
77.729752 10.85704 -0.55458176
69.604088 11.883302 -0.55460459
69.237396 11.573931 -0.58340985
75.274849 10.924285 -0.59010327
71.693924 12.367183 -0.59090209
77.028008 11.259736 -0.60752749
76.776382 11.104659 -0.62150234
75.80014 10.953063 -0.67324299
77.721069 11.455619 -0.72242308
73.730148 13.336057 -0.79813409
78.738022 10.986556 -0.82661235
76.171585 10.903938 -0.90751028
78.815826 11.267771 -1.0605323
76.430473 24.300129 3.0526416
69.889832 22.84919 3.0458634
74.263741 24.336142 3.0454583
74.176422 22.068146 3.0448046
76.897453 20.968887 3.044224
71.587814 24.156857 3.0441041
72.836128 23.519087 3.0196025
69.255859 22.537773 3.0160573
71.517548 20.99865 3.0052638
71.509193 23.850693 2.9963186
70.540581 21.252014 2.9928017
77.49855 22.583227 2.9902954
70.41819 23.877129 2.9826572
69.287315 22.505686 2.9652979
70.037704 24.046185 2.9568748
73.938225 23.59893 2.95452
77.271507 23.622595 2.9398637
72.140121 24.010883 2.92765
70.5308 22.722021 2.9228604
78.136902 20.864124 2.9143319
70.095512 22.561262 2.9138708
72.478615 21.817116 2.9091356
74.6875 23.128336 2.9053631
78.003891 23.695179 2.8858254
78.16806 24.275763 2.8706789
69.50013 21.366001 2.8703537
74.19072 22.05401 2.8566134
78.694038 21.705015 2.8555679
77.149002 20.810369 2.8528628
78.376556 21.366831 2.8514268
77.897232 24.566465 2.8510008
70.487183 22.652328 2.8449111
75.565758 21.631107 2.8277912
70.534492 21.727299 2.82482
69.43718 21.122406 2.8245804
69.563454 21.923149 2.8233864
72.046074 20.979536 2.8007402
72.354309 21.276609 2.8007383
78.592712 20.994053 2.7918394
74.602379 23.068867 2.7826769
75.614799 21.652548 2.7572646
75.952087 23.274445 2.753005
73.960411 21.530071 2.738512
75.751923 21.4433 2.7377331
71.59507 21.315197 2.7333324
71.092972 21.471569 2.732326
72.564438 21.43132 2.7312911
75.905258 22.292564 2.7297812
71.764763 21.249697 2.7265043
71.885506 22.964844 2.7182696
74.417976 23.845636 2.7154477
75.182014 21.916866 2.6986375
72.765953 21.014769 2.6968548
76.361168 24.268948 2.6960955
75.966644 22.051022 2.6907256
69.15097 25.571768 2.6884949
78.824165 23.615538 2.6878157
71.746956 21.254047 2.6801445
76.113541 21.809265 2.6790917
71.200745 21.580486 2.6671736
78.718681 21.702641 2.664803
74.067169 21.540226 2.6589861
78.911133 23.631264 2.6392798
77.757896 21.101698 2.6264088
72.045135 22.759026 2.6252246
75.193542 21.896376 2.6226733
71.65107 21.207026 2.6217349
78.258598 21.035965 2.6179159
78.378899 21.067093 2.6073525
76.239372 21.434944 2.607058
76.180397 21.41927 2.6040301
75.501793 21.401718 2.5887959
73.10965 21.764524 2.5717001
72.876488 20.968935 2.5477839
73.674835 21.438358 2.5476747
78.465385 20.988089 2.5455356
70.018738 20.722469 2.541409
73.140182 21.536062 2.5385947
76.028854 21.154806 2.5330303
72.904198 20.707108 2.5319283
71.831604 22.888706 2.5209112
77.687103 20.919458 2.5199234
76.584297 20.895807 2.5139503
72.156052 20.90992 2.5135419
78.256203 23.755196 2.4995208
77.989159 21.316217 2.4990375
70.954384 21.175648 2.4769607
73.297188 21.778534 2.4532473
77.733055 20.735178 2.4513109
71.311188 24.08337 2.4511507
78.425026 21.423361 2.4057722
76.352379 21.009354 2.3990498
76.831978 23.600988 2.3984189
71.667511 20.837608 2.3975825
76.520897 22.196726 2.3872731
73.740234 24.782089 2.3474
73.069206 21.433083 2.3403077
78.661583 20.753244 2.3176229
72.731201 22.782429 2.3162534
77.225365 24.865074 2.3100495
78.585365 20.685791 2.2575629
72.662048 22.920395 2.1609647
77.864937 24.40815 2.0716536
74.275047 21.104 1.9736191
77.502914 23.464237 1.946048
73.352402 21.103279 1.7706904
76.284447 31.022633 4.4553838
76.57296 32.227577 4.4426599
72.669838 32.061462 4.4412036
76.430687 31.723856 4.4401941
78.58448 34.208263 4.4397874
76.423172 30.711964 4.4365492
74.334221 32.264763 4.4353409
75.998566 32.226524 4.4324431
71.796562 31.347485 4.4143825
76.175034 30.926214 4.4054251
76.726082 31.954767 4.4010057
73.630386 31.412386 4.3988476
76.423187 32.767792 4.3948274
76.844872 32.006317 4.3894911
77.478302 33.421146 4.3893995
78.115685 32.261425 4.3888474
73.396301 36.196373 4.3860912
76.104271 30.886614 4.3829851
71.682922 35.125896 4.3719945
74.531837 34.205498 4.3709931
75.414764 31.874718 4.3664837
72.199028 31.757349 4.3560767
73.907906 31.11401 4.3484001
69.8069 34.270969 4.346344
71.334 37.408684 4.3449345
71.899384 31.022593 4.3422699
78.791748 31.794085 4.3373203
73.988525 33.580807 4.3340931
71.249084 34.708168 4.3281517
77.123764 31.216938 4.3272266
73.852013 31.249313 4.3256211
75.642113 34.284576 4.3237462
77.732536 33.696785 4.3096795
76.637276 30.783491 4.3080583
77.448631 31.017782 4.3051572
78.135834 33.209545 4.3000278
74.417114 34.942089 4.2949853
73.619095 31.98621 4.2909493
73.825653 30.755989 4.2771749
75.110138 31.533669 4.2696419
70.325714 34.422108 4.2661524
74.939598 32.65744 4.2605648
75.452301 32.90659 4.2507663
74.07164 31.730051 4.2459698
76.988045 32.935867 4.24157
75.114838 31.877993 4.2391028
75.784203 32.077576 4.2274532
74.751831 32.003761 4.2262659
75.780884 30.790321 4.219245
76.138741 31.788952 4.2143955
76.188477 31.800682 4.213984
76.923927 31.642897 4.2074208
73.522377 31.941189 4.1788049
73.905441 31.05024 4.1711774
77.512108 33.547836 4.1684384
76.77034 33.163139 4.1666512
73.935349 33.542496 4.1483569
74.144585 31.40077 4.1474257
76.00351 30.802277 4.1375833
74.792427 34.455982 4.1369205
76.843849 31.860094 4.1338048
76.957016 32.907906 4.1300621
75.061737 31.966753 4.1228352
71.753357 32.000896 4.1216412
78.257408 33.305145 4.1209025
71.834618 32.188889 4.1206961
76.302345 33.450932 4.1067214
76.46106 31.878069 4.0993667
73.167778 31.165697 4.0930133
76.091492 33.490021 4.0921197
72.332748 32.088707 4.0900669
70.879448 34.086479 4.0728116
76.50631 31.990438 4.0643153
70.760452 30.955387 4.058476
76.935211 31.664883 4.0562634
74.085777 31.365316 4.053277
69.868019 30.772745 4.0484581
72.538811 30.861109 4.0408688
73.973427 31.990921 4.0341411
69.975945 31.177256 4.0307069
76.575142 33.376888 4.0273452
73.154579 31.261478 4.0165954
72.205635 30.915258 4.0004339
72.486633 30.971012 3.9940927
75.770706 31.081034 3.9779768
75.881668 32.30352 3.968225
70.846359 30.998674 3.962857
71.034859 31.457148 3.9608378
69.182205 31.460281 3.9606419
69.418037 31.84907 3.9488797
74.060944 33.915943 3.9449036
76.40477 33.860275 3.9059501
74.116699 30.788786 3.8933918
69.971252 30.935213 3.8745215
76.900063 31.538885 3.8710287
72.410095 30.905081 3.8615828
77.22583 30.718441 3.8500466
70.792953 31.301344 3.8148601
72.649902 31.734238 3.8099918
70.878319 31.350447 3.7932463
77.414352 31.34973 3.7895648
73.808395 31.194962 3.7059414
77.41066 41.031559 5.1971536
78.356056 41.705128 5.175796
75.572319 41.145283 4.6166072
84.393005 9.6439161 0.029732518
86.516266 8.4114771 0.023331098
82.462517 6.9360647 -0.01719168
80.432083 8.671937 -0.031732969
80.326149 8.6783113 -0.044037323
86.59314 8.3410349 -0.099670775
86.850113 9.250247 -0.13732938
87.138199 9.9906216 -0.14220083
84.277962 9.5607004 -0.14304431
80.31543 8.7194376 -0.14310245
80.835899 8.4612646 -0.18454638
83.38887 8.7140818 -0.2880002
80.873383 10.540194 -0.2989006
80.455948 8.611661 -0.38966411
83.616112 8.3849573 -0.44717896
80.368057 13.272989 0.70978481
79.38105 12.637003 0.70650822
84.483765 14.234533 0.70543867
81.837166 12.784219 0.70531732
80.74131 14.144987 0.70365179
86.055107 12.787061 0.70181322
80.194191 15.906916 0.70048171
87.035408 10.785515 0.70009667
81.845947 11.09888 0.69392842
82.495659 14.187716 0.68644083
84.247345 11.911464 0.68636388
82.454842 12.301075 0.68512261
79.633392 11.886334 0.68382597
80.295982 11.541097 0.6813975
82.395439 12.847592 0.68060422
85.270889 16.382521 0.68059963
79.593933 13.443559 0.67545813
87.623749 12.49017 0.67331672
88.861504 15.064256 0.66148013
82.278931 11.252556 0.65696847
79.605705 12.794261 0.65689039
83.302132 12.379537 0.65540642
87.868431 13.139962 0.65171278
86.28096 12.516091 0.65160525
81.84845 11.448784 0.65050858
83.071205 13.87689 0.64821911
82.135513 11.800288 0.64437449
81.212769 14.18512 0.64367729
79.931923 12.450752 0.63099396
80.791214 10.872265 0.62693858
88.47937 12.89406 0.62131643
82.493614 15.357527 0.61861908
80.196808 11.900636 0.60763919
88.910263 15.077394 0.59228003
82.16777 10.886964 0.58735967
81.413872 13.471401 0.58562058
79.337929 12.17384 0.58489323
81.293182 12.589752 0.58190924
80.947411 12.743955 0.57922423
79.14254 12.198359 0.57321602
79.281868 12.367377 0.56352192
82.095428 13.025139 0.5578506
79.304718 14.430833 0.55645442
80.211899 12.088016 0.55357206
83.408173 11.996751 0.55176514
81.244698 14.146601 0.55144912
79.201607 14.359168 0.54672796
87.361435 12.994377 0.53611124
81.630066 14.264881 0.53229702
85.381348 15.938588 0.52939183
79.769501 13.28018 0.52708352
79.145332 12.354851 0.52660018
88.774002 16.669001 0.52043635
84.115868 15.399384 0.51543117
79.849838 13.285009 0.51325637
81.255653 12.034218 0.51066136
81.204964 13.372632 0.50935465
82.429932 12.304135 0.50747627
79.376541 10.749773 0.50725341
79.888428 12.024208 0.50476712
88.583557 12.910604 0.50406069
79.93972 12.457211 0.50320238
81.575729 11.687277 0.50110453
83.964729 15.308111 0.4999738
79.335564 12.975631 0.49771249
86.654121 11.116194 0.49628815
80.910583 14.093884 0.49181873
80.387573 11.747773 0.49155405
79.727127 12.964024 0.47718978
81.761024 11.593666 0.47486213
79.957977 10.91553 0.46921548
79.640648 12.682621 0.46620059
87.967514 13.272917 0.45913815
80.240944 12.305723 0.45587188
88.29689 12.489347 0.44970912
83.747993 11.155811 0.44901934
82.802864 14.239761 0.44860345
83.23822 12.141747 0.44313663
83.649689 12.650781 0.44282994
79.905022 13.065997 0.43773952
79.717766 12.54624 0.43499821
80.377586 11.650715 0.42589799
79.498734 12.753789 0.41360435
86.409447 13.274169 0.41326907
80.425446 11.55478 0.40356505
79.972191 11.849242 0.40223432
84.199852 11.675524 0.39682803
88.288925 12.623766 0.38085228
79.426628 13.253315 0.37550333
79.094185 17.647919 0.37308121
80.690834 11.726007 0.36871997
87.453064 12.472809 0.36123493
81.094635 13.992886 0.35769215
81.774551 13.015681 0.34361926
79.1707 12.69531 0.34000698
79.89222 12.828679 0.32186639
82.65641 12.050008 0.31852958
85.695198 15.874247 0.31393215
82.870964 12.193152 0.3114287
81.320427 13.744869 0.29535663
87.931274 16.823011 0.28571993
84.059525 14.11839 0.28297609
80.930206 12.307769 0.275051
88.084518 12.85519 0.2715908
86.145378 12.557774 0.26190999
87.384384 11.545295 0.25615475
87.825134 13.384273 0.24970795
80.177597 12.34756 0.23499812
85.942001 12.918609 0.23465195
79.108475 12.083136 0.23265833
79.339821 12.989681 0.23132923
80.97139 13.449518 0.22760485
83.143051 11.9733 0.22398652
80.18335 10.922604 0.19795598
85.088829 15.879257 0.19634825
79.98896 18.331474 0.1955837
84.121635 14.633287 0.19456899
79.767273 12.586205 0.19385728
85.85585 12.859834 0.17844355
79.729286 12.088336 0.17321588
81.520836 12.04367 0.16835338
80.939453 15.097005 0.16173156
81.846268 12.162672 0.1402754
79.78154 12.623289 0.13866067
81.044617 15.149979 0.13859646
82.539413 11.301264 0.12705757
83.649559 11.064075 0.11221481
81.471298 13.322962 0.10532168
82.98642 10.990563 0.10467245
84.53434 14.997695 0.094229214
80.544975 10.777598 0.076948866
80.006447 11.706233 0.062780246
79.139626 13.015728 0.06191314
87.781235 16.688673 0.040819608
83.338646 11.579065 -0.026196601
79.250137 12.58491 -0.027451314
81.217499 13.406494 -0.069261879
83.352379 12.126015 -0.075110942
79.134216 12.629759 -0.075949349
79.248787 12.747877 -0.10697048
80.786072 11.377273 -0.141947
79.416115 13.020904 -0.14577757
79.7883 11.103157 -0.14807196
87.107613 15.142971 -0.19615979
80.746712 13.945271 -0.20919661
84.412132 13.00897 -0.23650275
79.305786 11.785214 -0.28066048
83.2827 12.59572 -0.28360185
83.495003 12.65534 -0.30889919
80.752289 11.576612 -0.32722482
80.100182 12.074259 -0.3549785
81.635506 11.817069 -0.37876141
86.306259 19.779699 -0.39071366
83.315231 12.59024 -0.39535517
80.94133 11.998374 -0.39830634
81.298416 11.799788 -0.48467571
80.332703 11.688623 -0.5081163
85.561798 13.02544 -0.51099658
82.278954 12.299145 -0.52930391
82.379227 12.344948 -0.58792144
82.285233 12.275532 -0.63709056
83.560738 12.409133 -0.64472103
80.349686 11.60253 -0.66872209
82.478523 12.368754 -0.73467875
83.826958 24.534004 2.8140311
88.277969 22.334782 2.8082433
86.937752 23.592209 2.7998691
86.151352 21.980095 2.7971475
79.369095 21.173338 2.7938614
85.611725 22.689028 2.7901175
83.65123 22.029606 2.7880845
87.383492 27.571859 2.7880046
86.781174 21.81254 2.7802305
82.354668 22.895761 2.7723012
88.15036 23.173962 2.7627311
79.081734 24.062597 2.7626262
86.351768 23.242048 2.7598858
79.605736 23.926046 2.7595401
87.858322 21.853104 2.7577238
84.16246 21.038925 2.7503698
79.626381 21.09914 2.7474933
88.210617 23.238075 2.7457318
88.410873 26.178177 2.7438736
88.380119 20.726969 2.7333434
79.998466 23.701868 2.7298884
85.000801 23.604525 2.7296424
86.475998 24.408152 2.7290802
84.595291 23.786121 2.7257159
86.702972 26.88006 2.7218907
86.447868 23.024305 2.7197716
81.199265 21.259796 2.7161655
82.710388 21.379486 2.7138
85.65316 21.089911 2.7103448
85.262108 23.707052 2.7040024
87.375153 21.776094 2.7031624
79.826111 20.957027 2.7020347
80.778786 24.165239 2.6978841
86.493202 23.040911 2.6974301
85.615433 23.472931 2.6878448
85.764442 22.567524 2.6853392
81.425163 28.816513 2.684921
84.524437 23.398174 2.6848903
87.853424 21.414389 2.6842923
83.873985 23.203629 2.6818073
85.843353 23.186499 2.6814282
85.071518 21.76482 2.6804569
88.209473 23.8353 2.6802423
83.729591 22.705681 2.671638
86.374664 23.194977 2.6677012
83.618973 22.435621 2.6667469
83.431595 21.787212 2.6641319
85.232727 23.68856 2.6585596
80.459023 21.110472 2.6583116
87.449448 23.728493 2.657352
84.90197 21.357418 2.6568601
85.422447 22.589828 2.6556962
79.573868 23.899126 2.6519058
81.393143 21.603195 2.6469676
87.475594 21.376911 2.6463263
88.582863 23.600159 2.646204
87.764984 24.049629 2.6447926
86.30574 21.857635 2.6420236
84.966995 20.714169 2.6404245
84.849976 21.322329 2.639914
88.085251 23.893547 2.639111
80.452522 20.957411 2.633069
88.521355 20.756527 2.6312766
86.537399 24.398186 2.6296346
82.222061 22.502308 2.6260169
85.890625 22.598833 2.6233966
83.658913 22.61278 2.6231701
82.520393 20.777292 2.6207829
83.913177 24.519274 2.6179283
85.623848 23.795691 2.6151361
84.776253 20.883223 2.6077673
87.144951 25.14629 2.6041358
86.767555 21.435158 2.6033783
87.474289 21.715729 2.5973215
81.261383 21.416821 2.5972953
87.922653 24.179741 2.5939069
86.664421 21.388906 2.5909083
87.934196 22.625032 2.584023
86.389236 22.64043 2.582201
88.019211 24.333166 2.5799012
83.248825 23.794012 2.5791872
82.521591 21.870321 2.5718536
87.084 21.96616 2.5707388
82.390297 20.884087 2.5694849
84.248512 24.02408 2.5666633
82.627876 21.926287 2.566427
81.703323 28.806171 2.5663159
88.889984 22.077065 2.5598671
85.635437 21.076265 2.5555553
86.185333 23.752756 2.5529776
79.360641 21.522478 2.5527587
82.313263 22.983952 2.546267
80.263954 21.250751 2.5435128
85.023972 22.876926 2.5420763
79.378654 24.061314 2.5348718
88.073372 22.198799 2.5333149
83.266548 23.134865 2.5289204
82.338806 21.498825 2.5270932
84.601097 22.964909 2.5241561
83.624992 23.546373 2.5228534
84.537033 21.441837 2.5203385
82.68988 23.527573 2.5200889
88.640938 21.327404 2.5199246
83.169579 23.613899 2.5182331
85.279755 21.057018 2.5119152
84.567841 21.792864 2.5110874
82.404121 21.730743 2.4996088
84.738037 29.837234 2.4975109
85.79966 24.337994 2.4959791
88.208313 21.187201 2.4928672
86.389008 27.066105 2.4911962
80.275124 22.932266 2.4896283
85.888855 22.210312 2.4805059
83.368607 22.449827 2.4763739
84.556107 22.929358 2.4696774
84.740639 22.099012 2.4691319
88.820679 21.22098 2.4687116
84.320969 22.690203 2.463871
83.979836 20.989964 2.4606586
84.205727 20.794239 2.4540513
81.497505 20.95208 2.4531639
84.10289 23.812344 2.4454916
83.804367 22.445047 2.4423375
81.728737 21.1731 2.4267635
81.556015 21.183716 2.4262538
83.046486 22.604826 2.4160883
82.77079 23.242899 2.4152133
82.953094 23.315123 2.4142134
84.656044 23.194939 2.3991101
87.956299 21.410524 2.398809
85.049194 22.833784 2.3965588
84.912819 20.916309 2.3954859
82.423447 22.325321 2.3939309
85.691498 23.168194 2.3916416
82.236084 21.434347 2.3879733
80.712486 20.982986 2.3812613
79.375435 21.46702 2.3717077
84.239105 23.051662 2.3645847
88.51281 21.084948 2.3608878
82.3703 20.888487 2.3542104
84.315071 23.074808 2.3490064
85.794182 20.715448 2.3376687
82.140831 21.386885 2.333566
80.806999 21.146742 2.3289595
80.269417 21.16206 2.3225274
84.314537 20.809124 2.3102984
83.852386 22.475809 2.3043768
81.827461 22.047129 2.2990639
85.902641 20.755106 2.2859185
82.694374 23.523579 2.2806234
83.966217 22.683424 2.2798965
80.881531 21.747929 2.276443
81.08255 21.217319 2.2433262
82.17485 25.962919 2.2328796
87.830032 21.653023 2.2292821
83.148407 24.722626 2.2254684
84.83387 24.652754 2.2214098
84.18541 23.444984 2.2211146
81.040161 21.741449 2.2208738
87.728844 25.423431 2.2180641
82.660156 22.671177 2.205817
84.93927 24.726168 2.1985021
79.67131 21.08173 2.1815257
81.951721 22.035004 2.1288466
86.955971 20.873608 2.1167204
83.627754 20.771114 2.096746
80.940826 23.936666 1.9793063
82.976357 22.919966 1.9656066
80.44899 24.62924 1.8800918
80.839073 20.780956 1.7280869
81.319672 20.882179 1.6692376
88.39006 21.175955 -2.8074617
89.000778 32.925632 4.4376874
80.692329 32.138649 4.436398
83.277451 30.77853 4.4334793
84.46125 31.338514 4.4327779
86.907585 31.986267 4.4313955
81.461037 30.756426 4.4306788
85.264816 35.471832 4.4298153
81.455276 31.290306 4.4296927
84.840492 32.95731 4.4291215
86.724693 34.57235 4.4272013
88.639977 32.566391 4.4269447
80.556686 31.946936 4.4238095
88.655937 34.212723 4.4235077
84.306023 30.788843 4.4222012
82.026375 30.749807 4.4215894
86.512306 32.400875 4.4207253
86.238037 32.869442 4.4172864
84.349426 31.938396 4.4171925
84.774742 32.235218 4.4162779
85.326347 31.784834 4.4156656
82.960594 30.794832 4.4132586
80.763268 30.719662 4.4128041
88.700562 36.756588 4.4126396
83.843872 31.082916 4.4098883
82.309021 31.598625 4.4093833
86.236275 30.714657 4.4072309
86.268944 30.996803 4.406034
83.474571 31.093283 4.4047389
88.179192 31.385931 4.4031563
85.604378 32.428974 4.4031267
86.104744 33.332943 4.4015779
84.183647 31.311581 4.4005823
83.889832 32.906071 4.3996754
89.013359 31.363367 4.3996634
84.475914 32.105934 4.3987632
82.717247 30.706537 4.3985653
81.155739 30.779947 4.397737
83.017097 31.079157 4.3952641
81.685516 31.534582 4.3938379
81.691917 30.706886 4.3922882
83.116425 31.12051 4.3922296
88.040947 34.630508 4.3910022
79.341614 31.088875 4.3897133
82.007835 32.522331 4.387989
83.744202 33.546009 4.385839
88.287735 32.610096 4.3856945
81.19072 31.646965 4.3842373
79.932961 31.813152 4.3833318
84.76709 31.657019 4.3813033
80.424355 35.157673 4.3761277
83.564964 30.770449 4.3754473
89.054901 33.501408 4.3746033
85.596916 31.247486 4.3731852
85.68676 31.194635 4.3719754
87.74482 31.081375 4.3704138
88.044403 30.83077 4.368927
83.74025 30.791143 4.3642316
83.678726 35.356174 4.3635006
81.013626 33.823734 4.3619986
89.032356 34.526943 4.3595753
88.558159 34.177128 4.3592238
80.649544 31.327738 4.3570251
83.459579 31.653027 4.3564768
87.965271 31.147631 4.3550434
89.031342 32.170433 4.3549652
87.477882 32.808014 4.3530731
84.343712 31.054672 4.3525825
82.969917 34.063328 4.35179
80.344543 31.806696 4.3512273
84.248711 30.715454 4.3501787
80.21608 31.686392 4.3463902
80.757324 31.310268 4.3447156
79.913925 35.358616 4.3435564
85.854828 31.276846 4.3420177
85.804214 31.094667 4.3394537
85.017059 31.819372 4.3389707
85.262337 32.955585 4.3367009
80.588074 30.697872 4.3345361
88.478798 31.739702 4.3262925
84.990509 32.882652 4.3262863
87.8834 30.823236 4.3250537
79.623993 31.847151 4.3250065
88.362648 34.032677 4.3227987
80.750465 38.428997 4.3222609
84.774391 33.159874 4.3191628
89.012558 31.183189 4.3140912
79.142319 33.088631 4.3139925
85.889503 31.679012 4.3100414
84.135979 31.602932 4.3062196
89.044472 33.701649 4.3056083
79.660103 33.919788 4.2896028
88.499237 33.893425 4.2827487
86.303284 33.812881 4.2808199
88.172287 32.957664 4.2807918
86.915321 30.716526 4.2672091
80.327789 31.044456 4.2595425
88.389153 36.730698 4.2376585
84.976952 31.014122 4.2356858
84.08741 34.239861 4.2217975
84.875557 30.731892 4.2185888
81.848785 33.268948 4.2155166
88.686325 35.020473 4.2145619
88.258751 32.993992 4.2108502
82.747009 31.251442 4.19981
79.69957 33.937313 4.1960216
79.323563 35.566525 4.1954365
86.365234 35.144699 4.1926851
84.770241 33.626759 4.1891499
84.915459 32.612164 4.1842284
83.80558 32.384815 4.1779075
88.025276 32.340229 4.1745358
84.999565 31.749702 4.1724482
84.683289 33.138397 4.1702471
87.534981 31.807535 4.1654205
84.81945 31.815334 4.1538711
88.45842 30.746367 4.1467099
84.188484 31.109961 4.1438732
82.9972 31.517311 4.14043
87.308998 33.395084 4.1363454
80.484818 30.986374 4.1359301
84.911438 31.004009 4.1288404
87.645409 30.70508 4.1262012
85.629341 31.983479 4.1247931
84.152649 30.803595 4.1222825
82.853539 31.435272 4.1095715
80.607254 31.20719 4.1028748
85.090416 31.331604 4.1004238
79.589943 30.857264 4.0837379
86.737259 34.129185 4.0817904
85.024467 32.019058 4.080246
83.946632 31.22356 4.0697846
82.77961 30.925219 4.0615463
84.091713 33.179497 4.0538764
82.285133 32.265697 4.0400925
80.903961 30.69544 4.032475
82.611526 32.085751 4.025053
80.705345 31.465441 4.0192542
84.028976 31.253893 4.0090985
87.780289 34.89661 4.0033507
81.522301 30.809263 4.0004125
80.033569 32.431965 3.962137
80.490822 30.872149 3.9599204
81.074104 30.843756 3.9450259
83.648643 31.562883 3.9363811
80.231255 31.074387 3.5830295
81.351189 31.257668 3.5269876
84.469482 42.330997 5.3254099
85.362167 41.367153 5.3239408
80.817337 42.251953 5.3235884
79.09655 41.553032 5.3228769
80.303734 41.109364 5.3203044
87.799706 42.503616 5.3160486
85.289001 41.872524 5.3136544
79.067932 40.833191 5.3087821
88.676422 44.246712 5.3083339
84.679077 41.774426 5.3072343
81.316811 41.899197 5.3019071
84.111046 40.850449 5.3000059
80.699005 41.360111 5.2944856
81.314644 42.20705 5.294044
87.090202 44.394001 5.2906718
79.58876 41.580292 5.2844343
88.123444 40.727066 5.2799697
83.86869 42.463142 5.2791948
81.924004 41.765404 5.2787437
81.325027 41.551109 5.2770987
83.800468 42.035397 5.2663755
79.376015 41.094139 5.2631316
82.971031 41.834564 5.2622433
83.277565 41.201542 5.2560515
83.096855 42.104256 5.2377939
86.154213 42.195961 5.2248468
83.545227 41.35754 5.2227874
83.731079 41.950905 5.2128763
81.234703 41.51001 5.208962
80.974106 42.334034 5.1961732
82.489975 42.528271 5.1831546
79.508965 40.88063 5.089426
80.011696 41.280159 4.5688376
98.536385 -39.31871 2.2873576
91.021149 9.1044893 0.92184657
93.910866 16.037518 1.9089004
93.169434 19.779747 1.8991684
90.932007 17.237682 1.8983792
93.871391 13.245317 1.8873343
92.792213 13.979849 1.8829862
89.627151 18.047298 1.880195
95.323265 15.996037 1.8786407
91.567894 15.878227 1.8657815
89.898987 20.202538 1.8592823
90.855202 17.219671 1.8439734
94.129326 13.652226 1.8359772
89.115479 15.741895 1.8359512
94.67382 16.215889 1.8328016
89.770042 12.735079 1.8097628
90.477943 12.535596 1.7858342
94.54702 17.648361 1.7712086
89.232826 14.103664 1.7656339
90.357025 13.317751 1.7526808
94.287971 20.164669 1.7490015
89.783127 12.286345 1.7464012
93.853111 15.649596 1.7354118
90.089737 18.748573 1.7242867
90.029251 12.568855 1.7131584
90.691147 18.976158 1.7096527
94.659111 16.136536 1.7037749
95.650703 15.445978 1.6980424
89.825714 12.873108 1.6902938
94.624199 16.227543 1.6896672
91.912338 13.424917 1.6709058
91.23674 20.118805 1.6405813
94.080688 13.601723 1.6381048
89.285576 18.616325 1.6310706
89.20266 18.41641 1.6201763
89.473557 14.49709 1.6104466
95.42495 19.772453 1.6017445
90.449776 17.707956 1.5932825
89.510658 12.46885 1.5763677
90.771057 12.441789 1.5678393
97.193176 13.637858 1.558363
89.483398 18.473137 1.5516915
89.188217 18.290701 1.5379343
89.156868 12.988233 1.518227
89.473335 15.538541 1.4879701
89.499199 14.524691 1.4811643
89.461098 18.403008 1.4783751
95.46875 19.786121 1.4690906
89.563217 19.128462 1.4559493
89.586563 18.600296 1.4387308
90.318878 13.21349 1.4302835
95.605125 13.805852 1.428635
93.217598 14.418798 1.4157797
90.569611 11.625043 1.4025371
96.677376 15.898581 1.3992902
91.174072 19.903875 1.3924239
89.71035 14.680958 1.3853149
89.35508 11.467933 1.3770461
89.55201 13.068704 1.3725431
92.399284 15.83494 1.354853
90.08741 15.002254 1.3320814
89.322845 11.976543 1.330988
89.726402 14.156679 1.325912
89.664474 11.749176 1.315966
90.174683 11.641961 1.3039613
89.10498 15.443704 1.2562429
91.353951 11.77904 1.2555889
90.322548 18.481693 1.2424557
92.840919 15.565913 1.2256588
96.021172 17.496092 1.2202448
91.108437 14.733886 1.2069546
89.530998 17.055357 1.1489019
96.747734 15.821093 1.1426649
91.08136 12.829464 1.1045001
90.266487 11.664953 1.1032727
89.142097 12.114873 1.0948009
90.712807 14.347543 1.094687
89.871429 13.05763 1.06522
89.462151 11.640925 1.0575688
90.792519 15.555341 1.0119555
90.966209 14.13534 1.0091386
90.356209 11.659093 0.97534543
89.883919 12.502595 0.91148698
91.796272 13.800166 0.85431749
89.06971 12.880764 0.80120802
91.222534 13.764761 0.79595751
89.834167 12.766716 0.79117501
90.826355 12.855298 0.7741099
97.726357 20.193573 0.70707721
96.643089 18.869259 0.67460382
91.681 13.269793 0.6624319
91.730392 13.750467 0.65698385
89.347824 17.033634 0.62103194
94.421471 18.02474 0.55445015
94.421638 17.953377 0.50139683
94.139915 18.085152 0.45091563
89.80497 21.712759 3.1733062
91.940674 22.961227 3.1723604
96.449112 21.074785 3.170505
90.137085 22.566153 3.170495
89.96505 24.664223 3.1699719
92.838486 26.686037 3.1661577
92.110596 23.766453 3.1637287
95.844788 26.511864 3.1630666
91.466743 27.302778 3.1628604
94.066872 20.745214 3.1619356
96.925644 22.491154 3.1604917
89.856262 22.336706 3.1599748
89.188431 20.813251 3.1592364
94.087555 22.221916 3.1512928
95.393547 24.150629 3.1509883
96.414917 20.923393 3.1496623
91.373093 20.857376 3.148385
95.699852 24.216393 3.1478062
93.040947 24.915764 3.1477067
94.918304 27.197987 3.1447318
97.098938 21.471579 3.1430807
91.335602 22.241489 3.1421497
89.815887 23.273621 3.1406224
93.422813 26.384584 3.1384373
94.732414 22.691639 3.1377146
96.188019 26.450317 3.1367512
93.173264 22.243534 3.1367509
96.73716 20.862972 3.1347458
95.262161 27.055681 3.134645
94.494278 23.467617 3.1336989
90.357422 21.398466 3.1320033
93.579514 25.268135 3.131933
91.539558 21.454605 3.1303732
90.728195 21.629168 3.1264086
90.134216 20.903755 3.1241562
89.171257 20.682434 3.1220701
94.975204 21.86652 3.1201782
92.708534 21.488228 3.1125226
91.797157 22.746613 3.1123333
89.549072 21.149734 3.1027293
