# .PCD v0.7 - Point Cloud Data file format
VERSION 0.7
FIELDS x y z
SIZE 4 4 4
TYPE F F F
COUNT 1 1 1
WIDTH 1538
HEIGHT 1
VIEWPOINT 0 0 0 1 0 0 0
POINTS 1538
DATA ascii
4.5423427 -194.99353 1.0137354
5.1124315 -194.90886 1.1623124
5.8600864 -194.7103 1.126622
8.8846025 -194.89616 1.144074
9.0401716 -194.95883 1.1085217
9.890028 -194.77943 1.1625841
10.672805 -194.89691 1.165014
11.233474 -194.90881 1.1604581
11.575331 -194.88536 1.1565089
11.859611 -194.80029 1.1653795
12.150249 -194.77161 1.1455067
12.699202 -194.8257 1.1448505
-6.7745981 -194.67567 0.93280703
-3.1101167 -194.44241 1.0210514
-2.79918 -194.61195 0.96694124
1.4305892 -194.62068 1.1304369
1.6655642 -194.59894 1.0550548
1.9393216 -194.61092 1.0203911
2.2391384 -194.48022 1.1309607
2.4096437 -194.51608 1.1442889
2.7972016 -194.52194 1.0488182
3.1308491 -194.46852 1.0271412
6.5297093 -194.53978 1.1531981
7.9240956 -194.45517 1.098446
9.2210865 -194.69116 1.1461639
10.325895 -194.53549 1.1617732
10.871719 -194.5188 1.1607521
11.373535 -194.48248 1.1250792
11.848745 -194.57861 1.1647688
12.425022 -194.63425 1.1485296
13.039901 -194.54024 1.1599746
-3.334909 -194.16606 1.0246944
-3.1960971 -194.28967 0.93932033
-0.22676183 -194.11118 1.0316172
2.0362101 -194.34372 1.0861874
2.2446678 -194.25452 1.1031928
2.4668841 -194.30736 1.1890361
2.921468 -194.30666 1.058157
3.1165669 -194.30371 1.0311005
3.4074109 -194.30151 1.118646
3.704253 -194.12448 1.1565949
4.0691066 -194.13509 1.1489903
4.3473845 -194.13281 1.0928603
4.5937257 -194.11682 1.0933638
7.3077164 -194.17451 1.1739578
9.0473242 -194.32376 1.1432089
10.304873 -194.35115 1.165121
10.518668 -194.24174 1.1884207
10.904878 -194.2888 1.1709299
11.867774 -194.29245 1.1552377
12.254997 -194.18909 1.1735246
12.70749 -194.25865 1.1366335
13.044907 -194.23363 1.1474257
13.365417 -194.14955 1.1798491
13.750528 -194.18915 1.1457568
13.80188 -194.18159 1.1759175
-0.94325143 -193.99461 0.93575203
2.8449674 -193.89482 1.1334022
3.6916118 -194.03934 1.0641234
4.1223712 -194.0479 1.0193973
4.368722 -194.01923 1.0604517
4.6563544 -193.95505 1.0987002
4.8941312 -193.92091 1.0659066
5.3212209 -193.84622 1.1213889
5.6090293 -193.9478 1.1394299
5.9253225 -193.83092 1.1580193
7.8702583 -193.89453 1.1823379
8.2175045 -193.9519 1.1339931
8.6408596 -194.07957 1.148771
9.9623184 -194.05287 1.1460009
10.210001 -193.83536 1.1672717
10.576977 -193.98798 1.1658345
11.607908 -194.0313 1.1282942
12.606342 -193.8756 1.0804144
13.272015 -193.98233 1.1404823
14.008348 -194.09569 1.0979347
14.733055 -193.85229 1.1563237
15.660643 -193.96547 1.0136644
0.26806033 -193.57811 1.1308552
0.32771543 -193.57465 1.1362605
1.3248878 -193.53015 0.9982909
1.6046114 -193.52374 1.1325288
1.8314344 -193.52913 1.1322417
2.2838957 -193.66972 1.1127388
2.4903989 -193.63612 1.1565154
3.6851399 -193.62689 1.1628973
4.7329173 -193.75891 1.0537424
4.8961945 -193.73494 1.0144662
5.3252382 -193.68001 1.0884048
5.555347 -193.6534 1.1175505
5.8447905 -193.63466 1.1034151
6.1990376 -193.57237 1.1269467
6.4085593 -193.55823 1.104516
6.7083941 -193.51958 1.1202369
7.0276504 -193.57661 1.1379465
8.6661215 -193.70427 1.1504951
11.280288 -193.53792 1.161696
12.131103 -193.71039 1.1757762
12.493214 -193.69801 1.1537756
13.494856 -193.73531 1.1710601
13.529307 -193.60762 1.1780698
14.009108 -193.7265 1.1266127
14.163714 -193.51364 1.1848246
15.441005 -193.70715 1.106195
-0.25236374 -193.43059 0.93170309
1.3745509 -193.27901 1.1081305
1.6757908 -193.38078 1.0627557
1.9437906 -193.24745 1.0322208
2.9390039 -193.2767 1.117456
3.0633304 -193.37953 1.031768
3.6129763 -193.46811 1.1648728
5.2330256 -193.31326 1.1592685
5.4162979 -193.30005 1.129158
5.8549676 -193.46613 1.1121726
6.2765074 -193.39145 1.1017246
6.4208608 -193.3996 1.1363077
6.7346549 -193.42776 1.1640767
7.1024289 -193.32416 1.1042128
7.3342381 -193.28987 1.1177328
7.6020098 -193.28052 1.146754
7.9245648 -193.22736 1.194418
9.9312515 -193.31024 1.1409276
10.332526 -193.48758 1.1266726
11.219507 -193.39505 1.1977355
12.101838 -193.31458 1.1885055
12.583044 -193.24776 1.1514393
12.974814 -193.33104 1.1632653
14.290577 -193.36781 1.1458019
15.648232 -193.44588 1.1985927
17.064251 -193.28725 0.99676931
1.9694637 -193.12459 0.97212809
2.894161 -193.07651 1.0935501
3.1276455 -193.09901 1.0319223
3.4754853 -192.93205 1.1223446
4.103826 -193.06346 1.1181066
4.2884459 -193.05226 1.1042498
4.7624779 -192.99802 0.95200878
4.8454742 -193.15787 1.0935448
5.3469653 -192.91849 1.1561284
5.5220451 -193.09378 1.1665547
5.8801231 -192.94029 1.167455
6.8341913 -192.96381 1.1305852
7.0365233 -193.15154 1.092708
7.3393579 -193.18146 1.1389346
7.6453552 -193.12744 1.0926796
7.9568601 -193.07825 1.1206366
8.2129459 -193.05193 1.1373667
8.5223656 -192.95197 1.060052
8.9115429 -192.93491 1.1747639
9.0581446 -192.91107 1.1783519
13.291234 -192.98454 1.1808568
17.45903 -193.1792 1.0130452
3.2706437 -192.87636 0.93664151
4.1887383 -192.84642 1.1476905
4.2877645 -192.80128 1.1792498
4.7397275 -192.78003 1.1007333
4.8240223 -192.76939 1.0589561
5.2405686 -192.64787 0.96906847
5.5546112 -192.86771 1.1059554
5.7434454 -192.75681 1.0384678
6.1527848 -192.63806 1.1696782
6.3813787 -192.73232 1.1528533
6.6678782 -192.61562 0.92902845
8.397769 -192.63449 1.1718224
8.5218344 -192.72401 1.1484433
8.9429598 -192.80669 1.1363629
9.09688 -192.79126 1.1044501
9.4643316 -192.7626 1.1168387
9.6775513 -192.69406 1.1140988
9.9763622 -192.65063 1.1788673
12.913827 -192.64601 1.1928486
13.682015 -192.76428 1.1540381
13.967695 -192.86124 1.1672037
15.69575 -192.78546 1.1316394
17.606667 -192.7988 1.1811782
5.2783723 -192.56186 1.1529545
5.52953 -192.51982 1.0996971
5.8179111 -192.53705 1.0295929
6.3759909 -192.52475 1.1289501
6.6834607 -192.54779 1.1337187
7.3289342 -192.37358 1.0482877
7.5322814 -192.32083 1.0780286
7.8946476 -192.36337 1.0962477
9.8552036 -192.55109 1.1455739
10.031026 -192.52454 1.1684306
10.282681 -192.57141 1.1557286
11.48717 -192.33618 1.0994223
17.580727 -192.55161 1.1699517
19.262558 -192.50322 1.0910592
7.4823647 -192.29665 1.1364256
7.5460415 -192.27104 1.1517793
8.2535048 -192.1145 0.97201347
8.4332447 -192.20456 1.1628492
8.9710808 -192.05408 1.1495661
9.1750202 -192.12517 1.0902493
9.400219 -192.18085 1.149976
11.432994 -192.21402 1.0342972
9.48946 -191.99265 1.0727924
9.8306532 -191.94316 1.1342682
9.9715767 -191.88843 1.1380768
3.0630655 -191.67126 1.0843281
25.470564 -181.78618 0.99243414
24.837864 -177.91548 0.93094218
25.043938 -178.05972 0.90850872
25.112562 -177.71051 1.1544433
24.913124 -177.5907 1.0383096
23.139809 -175.2886 1.0047894
23.142822 -175.03317 1.09744
23.875198 -174.16425 0.95152521
22.896391 -171.71643 1.1292906
32.198845 -169.54318 1.0321386
23.707365 -168.69548 0.90103853
33.144482 -167.55815 1.12201
32.63232 -165.97797 1.0311379
32.730755 -165.90387 0.99995255
32.366699 -165.84082 0.91827345
32.586853 -165.75627 1.0654477
32.7379 -165.82918 1.0800894
32.559128 -165.52759 1.0691019
32.722042 -165.59019 1.1200801
30.860163 -161.43405 1.1527953
31.376287 -161.32147 0.92431229
31.580292 -161.28386 0.96657687
30.68186 -160.98291 1.0407065
31.531404 -161.05765 1.0607616
23.717171 -153.91656 1.1440566
22.60248 -149.83203 0.98980457
21.765829 -145.89272 0.9682368
15.104348 -57.975285 0.9050504
14.236931 -52.841484 1.0962343
13.9871 -52.517715 1.1137961
14.50989 -52.361519 1.1097671
13.963995 -52.187729 1.0203201
14.458797 -51.490421 1.0454373
22.550529 -51.497295 0.92238575
14.153823 -51.227345 1.0105237
15.791978 -51.163979 0.93709826
22.153078 -50.51738 1.1232742
22.267271 -50.515167 1.1268497
14.672167 -50.175968 1.1814328
22.184626 -49.539059 1.1208434
22.405945 -49.6394 1.109665
22.550472 -49.675159 0.98535532
24.549664 -49.4981 1.1809115
22.33621 -48.981529 1.0129365
22.139744 -48.814079 0.96690369
21.873117 -48.416122 0.93521887
22.12394 -48.414932 1.0429738
22.298748 -48.429714 1.0742865
22.947584 -47.856926 1.0435321
14.516846 -46.997864 1.0590777
15.199841 -46.502907 1.0801895
15.528323 -46.663944 1.1923982
14.265127 -46.384975 0.93159574
23.095831 -46.252079 0.90790009
23.266239 -46.315033 1.0211757
23.479586 -46.418346 1.000105
13.837803 -46.11097 0.97195703
23.004 -46.014263 1.1044755
23.189837 -45.977989 0.99786049
23.520853 -46.10004 1.0779767
23.849003 -46.015362 0.9784829
24.078154 -46.053967 1.1067387
23.857986 -45.816525 1.1197731
22.300472 -43.210876 1.0842245
22.282452 -42.964344 0.91337585
22.525261 -43.061916 0.92652529
23.008747 -42.886723 0.98786151
22.315845 -42.580635 0.90335858
21.549274 -42.217075 0.92779738
21.777647 -41.730751 0.92395455
22.3204 -41.358955 1.0122331
13.262697 -38.706566 1.1503341
13.320436 -38.691326 1.1445128
14.264359 -38.651703 0.98093581
13.686892 -38.212868 0.94556981
11.137189 -37.191895 1.1697119
22.554707 -34.100132 1.0027292
21.171167 -31.872892 0.95594585
21.31937 -31.820734 1.0474564
20.869612 -30.777662 1.0295479
21.224829 -30.477699 1.0986385
21.332521 -30.455711 1.0942838
21.094479 -30.138512 0.98838747
20.943153 -29.916285 1.0989443
21.03507 -29.99173 1.0789217
20.941845 -29.579449 1.1352128
19.960781 -29.274794 1.1690688
20.299086 -29.007504 1.1428629
20.544189 -29.022867 1.0659699
20.73834 -29.010521 1.0333756
20.487343 -28.772991 0.98396277
20.701948 -28.025106 1.0089018
20.356052 -22.71365 1.0704153
20.523148 -22.475595 1.0065631
21.273249 -22.278048 1.037567
19.765114 -22.188847 1.1521403
20.220085 -21.760283 1.0909647
20.090509 -21.51335 1.154856
20.219906 -21.466652 1.102466
20.579926 -21.44434 0.98766655
12.535498 -18.207294 1.175271
19.901098 -17.291464 1.0855054
19.681671 -16.675837 1.0224137
19.65251 -15.684924 1.1914134
20.030649 -15.757174 1.0444978
19.177584 -15.24058 1.0076321
19.349091 -15.104979 1.0480633
19.708458 -15.230112 1.0104748
13.311302 -14.978161 1.1970352
19.625168 -14.970809 1.1157728
20.030409 -14.860397 1.0445154
20.137094 -14.881192 0.9951129
19.998119 -14.660634 1.1104021
20.055017 -14.265756 0.9582051
12.162205 -12.72681 0.99679995
12.463687 -12.8049 1.0327287
13.021004 -12.837681 1.1164086
12.314296 -12.35439 1.0291519
11.895509 -12.20572 0.91263133
11.653994 -11.922185 0.97488946
11.708167 -11.956134 1.0614175
13.381629 -11.765175 0.98019081
13.383598 -11.615103 1.0940928
13.632285 -11.638849 1.13731
12.014332 -11.241681 0.95211679
13.249856 -10.037001 0.98891276
-78.208809 -7.7481227 1.019729
20.608271 -7.3020649 1.1675369
12.422709 -6.8008618 1.1675608
20.581688 -6.7394342 1.1632335
-28.827782 -5.6932817 1.1761131
11.202832 -5.2670789 1.0505708
11.347772 -4.8805203 1.0563316
11.365572 -4.5106535 1.1362013
-29.423393 -3.3152175 1.1822432
-29.279099 -3.3670576 1.1139719
-29.23715 -3.1970003 1.1643504
18.633312 -1.5619316 0.94168246
18.333168 -1.1888704 1.0329239
50.03207 16.8857 0.9011603
-26.101189 -207.78363 1.3808531
-30.604095 -206.97119 1.3590019
-30.592417 -206.99695 1.2639776
-27.035912 -206.28682 1.493001
-26.778006 -206.35338 1.3392833
-27.02433 -205.78214 1.256187
-26.996071 -205.78137 1.2995228
-28.525406 -204.90019 1.4491005
-24.742035 -204.77698 1.2454695
-20.151968 -204.37035 1.3352964
-20.053606 -204.35648 1.358224
-16.085546 -204.35069 1.2273812
-20.767399 -204.08688 1.2786727
-20.079004 -204.14534 1.3795794
-20.771076 -203.76817 1.2107887
-20.568783 -203.95322 1.2093843
-19.33139 -203.98848 1.4684525
-20.788248 -203.6424 1.2044514
-15.11588 -203.12907 1.4451742
-14.895908 -203.20895 1.4853442
-16.405651 -202.94606 1.2475909
-16.147785 -202.89925 1.3229239
-15.131874 -203.01668 1.4708576
-14.812304 -202.98515 1.4076395
-14.582914 -202.95363 1.391312
-14.324129 -202.84895 1.4060246
-13.606309 -202.98407 1.4012594
-13.43757 -203.06105 1.4598926
-16.580673 -202.75328 1.3851726
-15.409924 -202.75977 1.311904
-14.30959 -202.57756 1.4195418
-13.513776 -202.50949 1.3336115
-11.881094 -202.70586 1.2656746
-10.53645 -202.78427 1.4214097
-31.639221 -202.35757 1.4676508
-15.34307 -202.30602 1.2267618
-14.165072 -202.40894 1.4122351
-13.443694 -202.43111 1.4458802
-12.323521 -202.30779 1.2869335
-10.459167 -202.33392 1.3608785
-10.013464 -202.27919 1.4249119
-9.1681347 -202.3956 1.4920275
-29.097031 -201.95242 1.4119833
-12.162319 -201.99487 1.2989573
-11.648027 -202.07808 1.2106315
-11.001098 -201.93283 1.3766081
-10.358637 -202.15532 1.3371774
-9.9258337 -202.17435 1.4893715
-8.2691011 -202.04166 1.4012275
-7.5147552 -202.07031 1.3216884
-7.1216321 -201.92668 1.443439
-29.149578 -201.66943 1.3997836
-29.075251 -201.6134 1.2796293
-28.41502 -201.77744 1.3282578
-18.321573 -201.66638 1.2202802
-15.585636 -201.67999 1.2785637
-12.14602 -201.82661 1.3070598
-11.170547 -201.75876 1.352221
-10.938109 -201.70396 1.3392912
-10.726336 -201.77551 1.2974396
-8.7079268 -201.77782 1.4674529
-7.3585129 -201.85275 1.480808
-6.8593392 -201.88571 1.3577104
-6.4131646 -201.77296 1.2392867
-29.189156 -201.46066 1.3635968
-29.058105 -201.49991 1.3893912
-11.139544 -201.54153 1.3842692
-10.883082 -201.58952 1.2652739
-9.6714983 -201.30957 1.2424312
-9.5480347 -201.30594 1.4981855
-8.8644142 -201.50262 1.3541169
-8.5439262 -201.53226 1.4296042
-8.1724854 -201.35101 1.4081168
-7.2041149 -201.35527 1.4502066
-6.9573774 -201.57278 1.325686
-6.77913 -201.40709 1.3312358
-6.5360761 -201.30905 1.2568398
-4.7693386 -201.30734 1.4031062
-29.253016 -201.26927 1.3341972
-26.679268 -201.2292 1.3352735
-19.64768 -201.18881 1.4086772
-18.697687 -201.22935 1.2304993
-14.666986 -201.24614 1.2152693
-10.713001 -201.1163 1.2737163
-10.262549 -201.17416 1.2610571
-9.4535379 -201.19969 1.364988
-9.1193676 -201.14639 1.3268813
-8.8490839 -201.17244 1.3556926
-8.5223131 -201.12781 1.3716081
-8.2388239 -201.12669 1.4963586
-7.609354 -201.02237 1.3923037
-6.3932204 -201.09975 1.3311265
-25.473587 -200.80157 1.4176191
-20.921009 -200.78619 1.3536534
-7.6166654 -200.89346 1.3681692
-7.3342757 -200.78159 1.4072735
-7.0425391 -200.71948 1.2049767
-5.779139 -200.85242 1.4562956
-5.6235142 -200.78479 1.4324704
-4.6331806 -200.85388 1.3567394
-4.3312311 -200.73666 1.4714975
-2.3251331 -200.83044 1.2830549
-25.533527 -200.57658 1.3496708
-25.031439 -200.62384 1.4276934
-20.867346 -200.62122 1.2152524
-9.6599092 -200.46379 1.2746382
-8.6641216 -200.43048 1.2840643
-7.9397202 -200.40669 1.2475969
-7.0247216 -200.6501 1.3120811
-6.457972 -200.54834 1.2926211
-5.8837795 -200.54527 1.4931778
-5.4065599 -200.46204 1.3617475
-5.2786446 -200.4281 1.4019858
-4.5600038 -200.66295 1.4370669
-1.7688026 -200.51399 1.277063
-17.307152 -200.37592 1.3479893
-9.0250263 -200.37308 1.2577527
-8.9530916 -200.3132 1.3826511
-8.6068373 -200.18506 1.2173444
-7.8380556 -200.10803 1.287411
-6.515717 -200.27672 1.2823761
-5.7566462 -200.33965 1.2984104
-5.1104302 -200.39116 1.3663677
-4.9971447 -200.24911 1.3962883
-4.0647602 -200.14813 1.2862093
-1.2689366 -200.13748 1.3465505
-23.587122 -199.97487 1.4921809
-9.1383696 -199.99028 1.318115
-7.8298426 -200.00726 1.2631123
-7.6843896 -200.0164 1.2899561
-4.6313219 -200.04092 1.3266286
-4.3940277 -199.85539 1.3658435
-3.6813583 -199.84004 1.2836214
-3.0454094 -199.81419 1.3775847
-2.5611 -199.97919 1.422688
-2.3840752 -199.85779 1.3461449
-1.7721467 -200.02872 1.4779949
-1.0301701 -200.02568 1.324625
-0.83053339 -200.01767 1.2990953
-0.32866547 -199.95824 1.3229111
-21.175922 -199.73766 1.3594667
-19.860012 -199.57236 1.2033401
-19.217611 -199.65323 1.2947767
-19.145466 -199.63995 1.2585921
-7.3346801 -199.69521 1.2415534
-7.0587969 -199.67682 1.2318876
-6.8815079 -199.55736 1.2865313
-5.5335207 -199.52057 1.2827723
-5.2162771 -199.66325 1.2845054
-5.0059814 -199.64204 1.3262616
-4.1150069 -199.77164 1.2918177
-3.7748575 -199.7513 1.3568571
-2.5465758 -199.69301 1.2174003
-1.8737192 -199.69548 1.4860859
-1.0736171 -199.63469 1.2841065
-0.87491298 -199.70848 1.2756757
3.9537749 -199.68932 1.2774286
-29.43479 -199.28781 1.4225882
-21.412449 -199.26367 1.2620099
-19.228966 -199.2878 1.3969663
-19.018616 -199.23329 1.410001
-18.514666 -199.25078 1.2454891
-11.762354 -199.47693 1.4482989
-7.3666706 -199.32953 1.2370522
-7.1893835 -199.27637 1.2548077
-6.53265 -199.26495 1.2019801
-4.8300142 -199.4256 1.3083521
-4.6752706 -199.21988 1.27267
-3.8391936 -199.31808 1.4397221
-3.5228212 -199.32465 1.3876884
-3.0798948 -199.28787 1.2906086
-1.0595926 -199.30566 1.4912506
-0.44809374 -199.31749 1.4091241
0.23747416 -199.32446 1.3570508
0.37885317 -199.2701 1.3395497
0.81612968 -199.29147 1.3460931
1.580513 -199.31381 1.4051124
1.9472381 -199.26572 1.3832706
2.3869541 -199.24971 1.4242655
3.5668952 -199.37845 1.3332714
3.8950784 -199.27773 1.3825637
-29.481012 -199.07312 1.412603
-29.341629 -199.09488 1.4128976
-21.173347 -199.06497 1.2552062
-19.429087 -198.94067 1.2653942
-18.606743 -199.16905 1.2696611
-6.9813056 -198.94635 1.2539525
-6.8967953 -198.91382 1.2613388
-6.0826473 -199.10226 1.265784
-5.5275931 -198.98659 1.2196342
-5.2788219 -199.05705 1.2629162
-4.9734168 -199.14519 1.2885715
-4.7420511 -199.19675 1.3121172
-4.2569909 -199.02794 1.2640004
-3.9521613 -198.93524 1.2532291
-3.888509 -198.98457 1.3009547
-3.3602059 -199.03604 1.4084877
-1.2687813 -199.1541 1.2903773
-0.059466213 -199.16179 1.4123579
0.27201605 -199.10242 1.3874058
0.46152818 -199.15645 1.3235559
0.71951598 -199.09039 1.3143078
1.9841325 -199.1091 1.4319599
2.2822921 -199.05263 1.3201659
2.5557175 -198.98651 1.3964579
2.8032064 -199.0141 1.3728714
3.570231 -199.08403 1.4008914
3.7411628 -199.04729 1.3539732
4.1796236 -198.98717 1.4171904
4.4083633 -199.16661 1.3949418
4.9504862 -199.10818 1.4615639
-19.3174 -198.83112 1.2267275
-18.200169 -198.7231 1.2726074
-16.769772 -198.83476 1.2006373
-7.1029582 -198.82863 1.2750542
-6.526916 -198.71541 1.2336162
-6.1972618 -198.61282 1.2570568
-5.8184285 -198.86079 1.2814168
-5.6428642 -198.71381 1.2283722
-5.2178979 -198.78894 1.2448623
-4.9150305 -198.64935 1.2912543
-4.5020199 -198.77631 1.2184885
-3.9882374 -198.72479 1.2333957
-3.3767023 -198.71187 1.2652019
-2.8289158 -198.81232 1.2994711
-1.8694853 -198.74834 1.2983578
-0.55357468 -198.61595 1.2728581
0.66367012 -198.63429 1.2716613
1.7919295 -198.61411 1.2905049
1.8277621 -198.60323 1.3105786
2.5888903 -198.85387 1.4558215
2.8246951 -198.79585 1.3927367
3.111084 -198.70218 1.3746737
4.3420053 -198.811 1.4080882
4.9219594 -198.69714 1.2531374
-18.479332 -198.57162 1.2326523
-16.331276 -198.56865 1.2115955
-12.087664 -198.32117 1.4713542
-8.0386496 -198.51868 1.2007849
-7.0230746 -198.40533 1.2108569
-6.242919 -198.52017 1.2007495
-5.8864307 -198.43086 1.2155428
-5.4906254 -198.4783 1.2709117
-5.0649791 -198.36372 1.2679602
-4.6072092 -198.53487 1.2250648
-3.9908638 -198.42207 1.2258955
-3.7499199 -198.44254 1.2518306
-3.5816581 -198.57826 1.2335403
-2.9366236 -198.31024 1.2219977
-2.6925688 -198.35654 1.2508739
-2.2694569 -198.53316 1.315093
-2.0041561 -198.30714 1.2568399
-0.96146387 -198.39241 1.2463288
-0.56764287 -198.31186 1.2916737
-0.29064351 -198.49101 1.248793
0.44844723 -198.3539 1.2126936
1.1399181 -198.43443 1.2533755
1.2506382 -198.42673 1.2778778
1.5358598 -198.53964 1.270824
2.9056818 -198.51569 1.3238709
3.1668537 -198.5343 1.3260586
3.50508 -198.31616 1.4062682
3.8405449 -198.32593 1.2310088
4.0814829 -198.52184 1.3624814
4.2833581 -198.46812 1.4013126
4.9535751 -198.3457 1.3852559
5.2477398 -198.448 1.3437157
5.6858883 -198.47453 1.4714696
6.0259418 -198.33966 1.3410378
-17.646999 -198.235 1.2697382
-16.992769 -198.25204 1.2380247
-13.838411 -198.11469 1.207106
-13.675887 -198.05612 1.2313037
-12.181912 -198.25131 1.4872016
-10.174713 -198.006 1.3763022
-6.5209975 -198.24548 1.2818042
-6.0688148 -198.09436 1.2279625
-5.8490729 -198.18733 1.2505817
-4.9644632 -198.05679 1.2347304
-4.6087036 -198.118 1.2053882
-4.4893484 -198.0217 1.2611408
-3.9172926 -198.12132 1.2570386
-3.2467985 -198.18448 1.2012035
-2.5081959 -198.27057 1.240406
-2.3225925 -198.12665 1.22936
-1.8482226 -198.19576 1.2448725
-1.2268223 -198.05406 1.2977849
-1.0816774 -198.12297 1.2615356
-0.80080044 -198.08768 1.2739092
-0.49902207 -198.14592 1.3027656
0.58366024 -198.03874 1.2715037
0.78761977 -198.29686 1.2851195
1.3178691 -198.04897 1.2759801
1.5479485 -198.16518 1.2730175
1.8360766 -198.10065 1.2358032
2.3476324 -198.14456 1.2529631
4.0957828 -198.27216 1.3058437
5.0383854 -198.21532 1.2320002
5.3886232 -198.13931 1.4827507
5.5188985 -198.14951 1.3624097
5.8175335 -198.17441 1.397101
-15.981538 -197.87791 1.2865639
-13.243593 -197.91031 1.2996655
-13.071425 -197.85634 1.3350389
-11.90132 -197.84911 1.2793194
-6.9426107 -197.82524 1.2200913
-5.9518557 -197.95244 1.202417
-5.4275274 -197.93526 1.2303112
-5.1298995 -197.9445 1.2045944
-4.7486839 -197.79086 1.2084696
-4.4456263 -197.81821 1.2322005
-4.0421324 -197.92873 1.2892995
-3.4952295 -197.965 1.2562729
-3.0160575 -197.81889 1.2879975
-2.8231375 -197.744 1.2364041
-2.5387814 -197.88177 1.2723739
-2.1148193 -197.78098 1.2561711
-0.82301295 -197.88963 1.2608347
-0.58377969 -197.73608 1.2722459
0.0091150729 -197.81085 1.2549924
0.9993571 -197.88306 1.2376839
2.2096817 -197.8721 1.2294042
3.1232719 -197.91632 1.3082294
4.2448506 -197.74631 1.3884375
6.1999488 -197.92499 1.3489329
6.5461564 -197.83815 1.4211602
6.7365718 -197.87646 1.3777541
7.0097628 -197.78246 1.3506813
7.4728642 -197.70189 1.3254538
7.6392789 -197.82266 1.422183
-14.962217 -197.65494 1.3649595
-13.954132 -197.67419 1.2517715
-13.738811 -197.63094 1.2763189
-12.393936 -197.58571 1.2756095
-12.104715 -197.55957 1.3517129
-10.431357 -197.45477 1.3446769
-5.1472893 -197.43741 1.2070339
-4.0092201 -197.66466 1.2593861
-3.5025122 -197.53369 1.2455034
-3.1042476 -197.46918 1.2856854
-2.5467305 -197.60512 1.2568754
-2.2328491 -197.59573 1.2904682
-1.4983948 -197.57367 1.325676
-1.08127 -197.53802 1.267164
-0.46458223 -197.65337 1.2264829
0.45668221 -197.61548 1.2435848
1.1548823 -197.47433 1.343266
1.8889259 -197.65306 1.2535603
5.4401584 -197.42259 1.3653408
6.7323275 -197.5629 1.3906891
7.1444697 -197.62097 1.415614
7.3918834 -197.5136 1.2458841
7.6758151 -197.4893 1.3742739
7.813272 -197.48027 1.4141276
8.2891521 -197.6658 1.3754545
9.7168665 -197.55849 1.3800478
10.94582 -197.46782 1.3639152
-13.289898 -197.19897 1.4901309
-12.701619 -197.24968 1.3097725
-12.130936 -197.16698 1.4778147
-11.908041 -197.21985 1.3276803
-11.519821 -197.12021 1.2865981
-10.6528 -197.15514 1.2907505
-10.273598 -197.24886 1.2110156
-10.162199 -197.36111 1.272972
-3.3923607 -197.38116 1.2294002
-2.5993948 -197.14726 1.2426194
-2.3603432 -197.16875 1.2648876
-1.805384 -197.22008 1.2403424
-1.558112 -197.20287 1.2679541
-0.64652503 -197.14224 1.2628422
0.82689792 -197.18614 1.2761424
1.1877482 -197.26277 1.2338597
6.2365971 -197.2171 1.3541768
8.6175737 -197.20641 1.3588173
8.9264202 -197.20647 1.3644596
9.2920475 -197.24117 1.4316707
10.138736 -197.15884 1.2047882
10.531932 -197.18913 1.2893839
-12.357431 -197.06329 1.3908256
-12.295164 -197.09174 1.3098975
-11.745611 -197.061 1.3338416
-10.900237 -196.99199 1.3192582
-10.207636 -196.99174 1.2524499
-10.197519 -196.92337 1.3891797
-9.3825827 -197.00981 1.3319066
-9.1827536 -196.94418 1.3507006
-4.9320331 -197.02583 1.2351953
-4.1132636 -196.9787 1.2198825
-2.8605421 -196.90529 1.248648
-1.9409604 -197.03067 1.2307966
-0.53435391 -196.90927 1.2344449
-0.18491058 -197.09619 1.2405089
0.1706588 -196.84009 1.2136079
0.8307572 -196.92711 1.2206846
0.94914305 -196.90004 1.29275
8.0432596 -197.06326 1.380728
8.2226782 -197.03474 1.3347461
9.7978182 -196.95125 1.3889689
10.081531 -197.02306 1.4750112
10.286086 -196.99652 1.388296
10.948853 -197.00325 1.370645
-10.278212 -196.79129 1.222926
-10.079231 -196.73656 1.3315625
-9.7127647 -196.71585 1.3695416
-9.1488008 -196.59778 1.3455361
-8.8121815 -196.54059 1.2576051
-8.6758041 -196.57196 1.2409867
-8.1165047 -196.71347 1.3105608
-8.0492878 -196.68729 1.2404889
-1.3230025 -196.76234 1.2495077
1.2031482 -196.5251 1.2191213
6.5284233 -196.61595 1.3358229
7.501318 -196.5421 1.2204442
8.3112545 -196.66614 1.3521615
8.6426888 -196.59117 1.2776476
8.8521471 -196.65102 1.3209704
9.110815 -196.65698 1.3499334
9.5967607 -196.55994 1.2858696
9.7577152 -196.58554 1.3252392
10.769599 -196.76863 1.2504325
10.948439 -196.69177 1.3046679
-9.1326675 -196.40524 1.4213412
-8.9821749 -196.47998 1.2871157
-8.2590246 -196.3508 1.3159535
-8.0178146 -196.37282 1.3076093
-7.592412 -196.26434 1.2515056
-2.6473107 -196.34795 1.2237208
0.43151587 -196.21545 1.2248671
9.2552166 -196.25244 1.2104832
9.369873 -196.47849 1.2908279
9.7371082 -196.44025 1.248481
12.405754 -196.25514 1.257145
-9.3549576 -196.18739 1.4305146
-7.3088632 -196.04807 1.3704785
-7.0116 -196.0652 1.3169895
-6.8100004 -196.04007 1.3848113
-5.8564863 -195.94978 1.451333
-5.4603591 -196.12857 1.2761948
-4.0202127 -195.92322 1.2737857
-1.6950969 -196.10294 1.2213428
1.7114222 -196.11659 1.420796
7.6173563 -195.97803 1.2349758
7.9495378 -196.00729 1.2299488
8.4150524 -195.96875 1.3020104
9.878396 -196.0898 1.279
10.598476 -196.07239 1.2837476
10.873215 -196.17801 1.2637632
12.222136 -196.14409 1.2089056
12.627794 -196.16855 1.2182189
13.184692 -195.99222 1.209819
-4.9184866 -195.74078 1.3648422
-4.6057968 -195.825 1.4222776
-4.0224748 -195.77193 1.2400393
-3.7995741 -195.73489 1.4019114
-3.414814 -195.7068 1.3052239
-3.0601544 -195.86829 1.2411926
-2.0019619 -195.66418 1.2608582
1.7017018 -195.81596 1.2705579
7.9568548 -195.70457 1.2052464
8.4418478 -195.71587 1.3063205
10.048471 -195.70309 1.2351072
10.55867 -195.76622 1.3003243
10.859441 -195.784 1.304575
12.875751 -195.83208 1.296645
-7.5741096 -195.44183 1.2998676
-4.9174595 -195.46217 1.3074317
-4.379735 -195.57573 1.3786682
-2.9657199 -195.33568 1.2471149
-0.72829461 -195.39874 1.2622856
7.4714417 -195.50211 1.2100729
9.134964 -195.56474 1.2168689
9.5878525 -195.35324 1.2200757
10.658954 -195.44124 1.2006525
-6.6540294 -195.2894 1.3511477
-6.2685256 -195.10547 1.3374277
-4.6356792 -195.21161 1.4121596
-4.1021266 -195.20938 1.401911
-3.7556934 -195.18398 1.4089516
-3.1468878 -195.1507 1.3644868
-0.78762317 -195.17676 1.2420999
-0.38272381 -195.16267 1.4727614
0.25693345 -195.00946 1.2296741
0.43904123 -195.09009 1.380394
9.9953165 -195.20744 1.2183725
10.619063 -195.00531 1.2259897
10.986225 -195.06908 1.2327418
11.865263 -195.25377 1.2097757
12.757647 -195.09448 1.2342379
-6.4651423 -194.94019 1.2562796
-5.720438 -194.83319 1.228868
-2.0772855 -194.96603 1.2245677
0.19778597 -194.87236 1.3487877
0.429012 -194.86893 1.2940699
1.1651223 -194.70604 1.3944036
1.2824717 -194.74963 1.336955
1.5005792 -194.77164 1.3565147
4.2017908 -194.92812 1.2190344
9.0099754 -194.95027 1.223033
1.1609929 -194.56786 1.3074366
1.3894719 -194.62628 1.3309414
1.5983801 -194.62975 1.3067516
1.9774086 -194.47523 1.3238786
2.4893677 -194.50755 1.2274684
2.9213767 -194.5038 1.3047894
5.4842253 -194.4377 1.3422441
6.5764456 -194.45474 1.3511946
10.927175 -194.52698 1.2064575
1.7771205 -194.38914 1.3654176
1.9937304 -194.30786 1.3771404
2.6598706 -194.12576 1.3282287
2.7881553 -194.142 1.2095001
3.1061053 -194.29912 1.3698795
3.7252202 -194.16747 1.2458338
4.0946326 -194.15723 1.3088477
4.232017 -194.151 1.3293455
4.6527529 -194.14166 1.2992468
5.39571 -194.30426 1.3924001
6.8221917 -194.37314 1.2120135
7.465785 -194.14648 1.2797832
7.5948806 -194.13329 1.2044005
2.6264679 -193.88937 1.2574644
2.821593 -193.96779 1.3228251
3.5823324 -193.96716 1.4832735
3.675101 -194.0172 1.3287303
4.0730762 -193.99393 1.3300037
4.3137269 -193.98837 1.3051684
4.6367536 -193.88939 1.3558749
4.8850594 -194.00914 1.2662462
5.2096949 -193.81165 1.2368093
5.5672131 -193.81583 1.3202736
5.9013324 -193.83397 1.3718342
7.9843559 -193.94896 1.2032264
11.272702 -193.90154 1.200559
13.57217 -194.01082 1.3427289
14.167346 -193.92291 1.2797695
0.12250143 -193.74222 1.2813799
0.5011645 -193.78934 1.2713851
2.2933288 -193.6813 1.2988616
2.5926223 -193.75041 1.3282229
3.586745 -193.61356 1.3797202
3.6628993 -193.6326 1.3674905
4.1531668 -193.50046 1.363356
4.4235606 -193.69601 1.3055393
4.5648947 -193.63173 1.2469902
4.9480739 -193.61255 1.2690685
5.3272772 -193.67378 1.3460139
5.5962563 -193.64977 1.360301
5.8598776 -193.65073 1.3653669
6.1276617 -193.61653 1.3548225
6.4798226 -193.55145 1.3117214
6.6867666 -193.55934 1.3287601
7.5536232 -193.76698 1.2303636
8.6305285 -193.71106 1.339829
9.1489038 -193.59727 1.2191976
0.46096545 -193.47725 1.2573285
3.7015214 -193.46815 1.4111632
4.127306 -193.4868 1.4044887
4.2901864 -193.43912 1.4166545
5.3147845 -193.3466 1.3040696
5.4754314 -193.34752 1.3369486
6.1425047 -193.35388 1.2292387
6.4521098 -193.45592 1.3242561
6.6635838 -193.459 1.333831
7.1202216 -193.32817 1.3167146
7.3515372 -193.29425 1.2976152
7.5718622 -193.27434 1.2466393
14.30408 -193.45325 1.2653879
14.854083 -193.49545 1.2021329
16.354586 -193.20717 1.2473809
3.6819649 -193.11638 1.2876343
4.0105796 -193.02861 1.3570908
5.296011 -193.11633 1.2438608
5.4740953 -193.13066 1.3188751
7.0774817 -193.08165 1.3388103
7.3625827 -193.12599 1.3461136
7.6464953 -193.0549 1.3402107
7.9476762 -193.03146 1.3017532
8.289176 -193.00099 1.2582195
8.5567598 -192.95366 1.2664534
8.7312326 -192.93375 1.2902606
10.069617 -193.17348 1.3423297
11.384155 -192.95996 1.3017147
15.371524 -193.05493 1.2496591
3.3269928 -192.87509 1.2007365
3.8667645 -192.85594 1.3779334
4.1252527 -192.7598 1.23446
4.2961278 -192.81018 1.4214034
5.3410859 -192.71471 1.3540198
5.5332775 -192.67448 1.2653824
5.8479142 -192.68507 1.4176048
6.2108049 -192.76985 1.2548158
6.406733 -192.68361 1.2788762
6.6675806 -192.72462 1.2467151
7.3886576 -192.89857 1.3596478
7.7324128 -192.80305 1.3564318
7.880157 -192.81087 1.265347
8.1093168 -192.8569 1.2018137
8.5802174 -192.85727 1.3481281
8.9258766 -192.79243 1.2539184
9.1831055 -192.75758 1.2878321
9.4521894 -192.74796 1.3588165
9.7193098 -192.6627 1.3581839
10.10779 -192.61105 1.3826069
12.0548 -192.6067 1.2190762
5.1930346 -192.46088 1.2487825
6.2073164 -192.56888 1.2686744
6.4284372 -192.57195 1.3237398
6.8008003 -192.53137 1.2703497
7.1160421 -192.44075 1.3126518
7.2614183 -192.51425 1.2278125
7.6412082 -192.41696 1.208142
8.7710133 -192.54048 1.4257503
9.4927101 -192.44815 1.2803049
9.8072577 -192.56358 1.3570271
10.030096 -192.49596 1.2859375
11.308423 -192.37094 1.2979106
11.482947 -192.38078 1.2512413
16.093174 -192.46017 1.2970388
16.222313 -192.52811 1.3088034
17.532303 -192.36983 1.322292
5.4368572 -192.22069 1.2564408
6.9982285 -192.18414 1.3485254
8.5139217 -192.20811 1.2149508
9.4224749 -192.16736 1.2640238
11.508019 -192.21594 1.2662992
11.863594 -192.15179 1.4902703
12.514925 -192.01176 1.2943327
9.5880098 -191.8205 1.4951262
9.731576 -191.85181 1.3816839
10.069596 -191.77769 1.2947228
12.518725 -191.87659 1.3671136
14.561276 -191.4209 1.3055612
14.668691 -191.39909 1.3172649
23.938454 -179.4767 1.4028633
23.72654 -179.05327 1.3092223
25.27787 -177.88852 1.3060603
23.053972 -175.51744 1.4084992
23.26767 -175.54401 1.2705239
23.034008 -175.22864 1.319237
23.055527 -175.1096 1.3614578
23.164547 -175.05464 1.2804422
24.013168 -174.67082 1.3257148
31.681938 -169.84984 1.2126372
22.192801 -168.40892 1.4252001
33.1852 -168.07838 1.4401144
33.31855 -168.01627 1.2658831
32.934547 -167.57787 1.2444247
33.026665 -167.52409 1.2724298
32.643291 -165.95442 1.2712517
32.375813 -165.68243 1.4675521
32.604 -165.79651 1.2944132
32.760212 -165.89963 1.3594751
32.539619 -165.48061 1.298321
32.521137 -165.28616 1.3446648
30.922358 -161.67612 1.3837867
30.801157 -161.26985 1.3472223
22.715815 -154.66432 1.2231194
22.733839 -153.89604 1.3406166
13.896103 -52.527672 1.3323975
14.163579 -52.565285 1.3453748
13.96844 -52.213055 1.4631565
14.153545 -52.283398 1.3992431
13.916135 -51.911846 1.3784785
22.9951 -51.172176 1.2232553
24.056614 -49.83326 1.4381708
22.099922 -49.545498 1.283885
23.774158 -49.693542 1.3486565
24.288502 -48.973732 1.2426
22.577995 -48.678875 1.2730207
24.057774 -48.604717 1.4478447
24.049652 -48.538643 1.4133835
24.407162 -48.509743 1.4180125
21.955046 -48.26363 1.2184392
14.657254 -46.535213 1.3633407
14.478436 -46.403149 1.3547913
23.233065 -46.241005 1.2103459
23.449327 -46.398495 1.2315966
14.322274 -46.165905 1.3695611
23.259962 -46.010086 1.3037536
23.615911 -45.961491 1.4051226
23.805841 -45.957653 1.4591049
23.232897 -45.896748 1.3698307
23.511801 -45.88451 1.3542471
23.796246 -45.839989 1.375425
24.000017 -45.849361 1.2808819
23.039864 -43.37859 1.4613345
22.408588 -42.986774 1.2062936
22.932951 -43.158588 1.3767439
15.242272 -39.861031 1.4434857
15.42722 -39.798698 1.469592
13.227623 -38.944839 1.4472835
13.190151 -38.336334 1.3831928
14.194866 -37.615158 1.3899001
14.188091 -37.423264 1.4389497
21.041845 -36.269279 1.3863168
20.395037 -35.702934 1.2880253
20.473419 -35.781418 1.3264174
20.579153 -35.674835 1.2043761
20.949682 -35.153595 1.4637181
21.756996 -34.906307 1.3368006
20.366951 -33.616852 1.2908298
20.973091 -30.320776 1.340476
21.202951 -30.38294 1.2898865
21.198105 -30.295425 1.2856858
20.570732 -29.758066 1.3087885
21.018427 -29.92951 1.3666818
19.920776 -29.516626 1.318675
20.383759 -29.478266 1.4668069
20.53883 -29.438141 1.2364627
21.419487 -29.590984 1.2813425
20.306808 -29.212355 1.3409536
20.562351 -29.262772 1.3422978
20.340008 -28.912239 1.3504544
20.444805 -29.058277 1.3505726
20.947105 -28.013186 1.4627289
19.677332 -22.672583 1.38843
19.926386 -22.373545 1.3998117
19.725647 -22.193903 1.385762
19.990629 -22.031645 1.4093275
19.918383 -21.816259 1.4928343
20.103203 -21.514635 1.3281029
19.235497 -20.842445 1.228117
19.475588 -20.141256 1.30374
21.401014 -19.887144 1.2908773
12.0499 -19.224491 1.3753974
11.784626 -19.13796 1.3013395
11.624751 -18.728064 1.4385802
12.144119 -18.30427 1.3765585
12.072361 -18.095032 1.3008571
20.161224 -17.683115 1.4055687
19.809038 -17.327681 1.2137512
19.801394 -16.165154 1.4685991
20.203552 -15.724571 1.3107032
19.928024 -15.388686 1.2825655
19.396793 -15.104994 1.3299628
19.727535 -15.22632 1.364664
19.861572 -15.119864 1.2932096
20.101189 -15.036607 1.4654148
13.40958 -14.951564 1.221377
19.662849 -14.920932 1.2463831
19.923893 -14.828456 1.2647228
20.173159 -14.893063 1.2768502
19.724396 -14.660643 1.4341063
11.532535 -12.322535 1.4568834
11.813557 -12.382026 1.2987707
13.662592 -12.17563 1.2008795
18.968626 -8.4868536 1.2684735
-77.975159 -7.7502365 1.325328
11.663049 -6.5062842 1.3558563
11.860474 -6.5063043 1.2662387
11.565459 -6.0120726 1.3495969
11.221167 -5.8181086 1.4018006
11.419973 -5.3092322 1.2316024
-29.33325 -3.749896 1.3042409
-29.412853 -3.3269215 1.2520195
-29.180244 -3.2550881 1.2739847
-29.086199 -3.2781513 1.2588207
10.757923 -2.5447695 1.272373
-68.907288 -211.11812 1.6950811
-68.993225 -210.68416 1.731015
-30.702583 -206.90009 1.7876207
-26.915751 -206.28632 1.6353626
-23.783979 -206.03967 1.786384
-28.331583 -205.25621 1.6492355
-28.400236 -205.03368 1.6631927
-28.435757 -204.84038 1.5873795
-14.651854 -204.43295 1.7335365
-20.487473 -203.98689 1.5598629
-15.972267 -203.15837 1.5666094
-15.856638 -203.12755 1.5755467
-13.649262 -203.10085 1.5022486
-16.025038 -203.05128 1.7138907
-15.138244 -202.99098 1.5939083
-14.730349 -202.91199 1.6245689
-14.492993 -202.91162 1.6279664
-13.312809 -203.04468 1.5301541
-10.867915 -202.84572 1.5163531
-14.897738 -202.67532 1.6776903
-14.325985 -202.58804 1.5563068
-13.866223 -202.52762 1.6277241
-13.216778 -202.51836 1.510685
-12.34848 -202.55644 1.5652463
-12.210925 -202.51102 1.6331644
-11.934555 -202.63014 1.5333285
-10.577384 -202.77641 1.5556309
-32.007877 -202.35612 1.5856342
-14.161586 -202.25172 1.5827059
-14.094186 -202.28117 1.6162682
-13.12519 -202.49437 1.5756102
-12.331257 -202.36925 1.693754
-12.23821 -202.41783 1.6611072
-10.171979 -202.21635 1.5581516
-29.157492 -201.96581 1.6613717
-11.03574 -202.16318 1.7230736
-10.373176 -202.16475 1.7846878
-9.9238291 -202.19772 1.6041449
-29.205374 -201.68842 1.614881
-29.056488 -201.60672 1.5524888
-14.737686 -201.61319 1.5379183
-12.143222 -201.80727 1.6645674
-11.228762 -201.65561 1.5108755
-8.8397722 -201.72562 1.578318
-8.6540775 -201.79306 1.556549
-6.8935041 -201.83755 1.5600905
-5.513504 -201.84149 1.6486108
-5.2077565 -201.80998 1.5975488
-29.160387 -201.50084 1.6428373
-29.036716 -201.49254 1.6160465
-28.716793 -201.42201 1.7379086
-14.655149 -201.56853 1.6792378
-9.605998 -201.56927 1.6453831
-9.4666672 -201.51234 1.580559
-8.3613253 -201.37949 1.5749002
-29.430426 -201.13422 1.5850631
-29.311701 -201.22775 1.5668406
-26.665058 -201.14091 1.7529786
-9.6740026 -201.15375 1.6381226
-9.5359974 -201.25716 1.7355707
-9.2734966 -201.04588 1.5191361
-8.9705849 -201.1756 1.5562782
-8.2619114 -201.12064 1.5023938
-7.8895531 -201.13188 1.5026118
-6.9409776 -201.24152 1.6079079
-6.3663116 -201.17508 1.5548364
-2.3483901 -201.02861 1.7483472
-1.4994723 -201.15468 1.7747359
-29.210747 -200.84814 1.6595834
-28.838152 -200.83566 1.6355176
-7.8669167 -200.99643 1.5555499
-6.1530342 -200.85107 1.6593294
-5.802856 -200.82236 1.6322143
-4.554038 -200.80415 1.7415279
-4.45544 -200.78362 1.5757177
-0.6320948 -200.89018 1.5589226
-29.288828 -200.61821 1.6137543
-25.319969 -200.57491 1.6687406
-5.8760471 -200.67566 1.7059577
-5.3280239 -200.52148 1.5727453
-4.5059462 -200.6973 1.5099188
-4.3802176 -200.58307 1.717593
-3.0315933 -200.45355 1.6944009
-1.679267 -200.4821 1.6096785
-2.8466163 -200.13591 1.7713101
-1.055503 -200.10231 1.7526197
-6.3160014 -200.05473 1.5031381
-6.0653586 -199.96353 1.6387916
-5.9939818 -199.94717 1.6367933
-3.5923672 -199.88435 1.6188568
-3.1947265 -200.08727 1.6437646
-2.7362118 -199.81238 1.7650461
-2.5741818 -199.89699 1.5800985
-1.0318123 -199.8857 1.6123391
-0.82145935 -200.08591 1.7022845
0.13163114 -199.84004 1.5668269
-2.8788543 -199.69044 1.5092465
-2.542377 -199.71892 1.7020884
-1.0275346 -199.73793 1.6489587
1.6358 -199.65123 1.5881443
0.24668816 -199.22536 1.5995235
0.3817755 -199.20813 1.5103577
1.7577506 -199.21312 1.7398969
2.2579248 -199.26985 1.7393267
3.7243824 -199.30675 1.595914
-29.212351 -199.05188 1.5218283
-14.835862 -198.99661 1.5257232
-2.7437525 -199.1843 1.6796367
0.24820034 -199.0291 1.5332456
2.2793305 -199.05806 1.5938959
4.1250601 -199.06601 1.5986217
5.877738 -199.10074 1.5986984
1.0929753 -198.87268 1.5056973
2.381108 -198.88693 1.5061212
2.4360147 -198.86562 1.6003375
4.5539904 -198.66113 1.5412771
5.5008459 -198.71268 1.5937587
1.8900158 -198.44933 1.5304401
2.2640414 -198.3342 1.522619
2.9202771 -198.51114 1.5599461
3.1413937 -198.45967 1.5615617
3.3706055 -198.4108 1.550091
4.2559066 -198.44635 1.5327798
5.7034688 -198.48006 1.5013109
7.1972537 -198.4465 1.6470273
-11.972854 -198.26656 1.5519001
3.570682 -198.05714 1.5437305
5.4608259 -198.22125 1.5167711
8.2672291 -198.20296 1.5868373
-13.603304 -197.77832 1.6291173
-13.209449 -197.84207 1.546155
6.1914673 -197.99434 1.5096606
6.3240495 -197.80682 1.5396957
7.891799 -197.99573 1.5544612
-13.226034 -197.68857 1.6573694
-11.853654 -197.54337 1.6574179
8.5625639 -197.53702 1.6749376
-11.912785 -197.33507 1.6660162
-10.658229 -197.28476 1.5628444
10.64382 -197.05829 1.5093219
-9.2140732 -196.69775 1.6261215
-9.3387699 -196.4791 1.5780835
-9.0172014 -196.4493 1.5032884
-8.3677387 -196.4146 1.5132717
-8.089283 -196.34811 1.5513965
13.237478 -196.20261 1.5743101
-9.4904623 -196.16866 1.5285367
-4.0519733 -196.18147 1.5420755
-5.4671211 -195.66302 1.5847133
-5.1029077 -195.81058 1.5984509
-4.6383681 -195.85422 1.5208077
-3.9569352 -195.77754 1.792087
-3.2423232 -195.52757 1.5286689
0.43618739 -194.91757 1.6056001
1.1629617 -194.67291 1.51706
1.5824426 -194.43605 1.6635959
3.0084648 -194.25479 1.6476152
3.6425421 -194.37254 1.500792
2.3850644 -193.85245 1.5747454
2.4471827 -193.87903 1.6960425
3.6435974 -193.93228 1.5463421
4.1243939 -194.09319 1.5604422
4.2243094 -194.0072 1.5312374
4.6866226 -193.83496 1.5934153
4.8596449 -193.80814 1.5333856
5.5756469 -193.89511 1.6355029
5.7892232 -193.80713 1.5272287
3.6925268 -193.73837 1.6504667
4.8270168 -193.62378 1.5769681
5.5677099 -193.58185 1.5550189
5.7018414 -193.59773 1.6652365
6.3370204 -193.54227 1.629074
6.6579261 -193.64174 1.5225832
3.9834027 -193.27429 1.5604451
5.4200397 -193.26923 1.519822
6.5710812 -193.46671 1.5058482
6.6545682 -193.42664 1.5273986
3.8481591 -193.02759 1.5997509
7.0675273 -193.12186 1.5412241
7.5782304 -193.18761 1.5384206
7.9418869 -192.96204 1.5150596
8.5986729 -192.66464 1.6076633
8.7638531 -192.86148 1.5050763
9.2228289 -192.81189 1.6856611
9.451252 -192.63467 1.5356879
9.7578821 -192.56474 1.5887465
10.025382 -192.41449 1.5420848
10.471284 -192.52773 1.5849872
10.581079 -192.52246 1.5891626
11.270453 -192.42558 1.5688903
3.9626532 -192.11118 1.5499184
9.0029478 -192.21814 1.7628218
10.08785 -192.29993 1.6391978
10.42625 -192.11603 1.786327
10.633219 -192.11841 1.7858756
10.802597 -192.21355 1.6490407
9.3939562 -191.8214 1.6964083
9.6905403 -191.73473 1.7381228
12.79385 -191.85919 1.537194
9.7731991 -191.64093 1.7107351
10.52538 -191.45045 1.7723111
10.892651 -191.56673 1.588685
23.996983 -179.14178 1.6009557
24.036425 -179.13522 1.5998322
23.964457 -178.89966 1.6040754
24.092628 -178.87825 1.6003577
25.352518 -177.91957 1.7245207
25.290459 -177.79478 1.5475934
23.128681 -175.55031 1.575981
23.07962 -175.31915 1.6861267
23.181824 -175.29526 1.6832733
23.011158 -175.0594 1.635538
23.176184 -175.02982 1.7097144
23.997387 -174.73244 1.7537112
24.155396 -174.76025 1.7519008
22.988791 -174.29669 1.7035625
22.876802 -173.61987 1.7029204
22.758896 -171.75508 1.67152
22.805267 -171.80098 1.6026522
22.836182 -169.79239 1.6963053
23.879843 -168.65509 1.6383786
32.624454 -166.02141 1.5098836
32.510307 -165.77667 1.7571816
30.95175 -162.25481 1.5720477
30.863037 -161.31331 1.5073794
31.416712 -161.10487 1.7378609
31.168068 -161.04942 1.5136927
23.217581 -154.07347 1.6051919
14.066435 -52.36224 1.5593565
14.125628 -52.482964 1.5461683
13.897895 -51.983948 1.6291052
23.203192 -51.19154 1.6051663
14.503439 -50.811172 1.5619309
22.385181 -48.901913 1.5459918
22.455599 -48.764065 1.5991032
15.037894 -48.56443 1.5287799
22.768555 -48.575199 1.6673212
14.509508 -46.73978 1.5085925
15.433121 -46.650864 1.5540342
14.06617 -46.242889 1.5553497
22.95845 -46.345238 1.6979169
23.266947 -46.30048 1.708179
23.420544 -46.301857 1.6871867
14.365623 -46.097713 1.7328813
14.462519 -46.073105 1.73053
14.83726 -46.133739 1.5666394
22.874302 -46.175514 1.7719752
23.246984 -46.050434 1.639635
23.604179 -46.068611 1.7358013
23.760031 -46.025391 1.6820427
15.203857 -45.843807 1.6163491
23.618093 -45.85207 1.6464744
23.793871 -45.847683 1.6615342
13.970222 -45.178513 1.7184284
16.046732 -45.068195 1.7978759
22.412699 -44.286907 1.7476913
22.677095 -44.201355 1.7285719
23.012375 -43.301994 1.673943
23.171276 -43.428352 1.7646122
23.080158 -43.192654 1.5918239
13.754688 -39.931217 1.5975955
13.850564 -39.908051 1.5811298
12.851594 -39.407536 1.7513384
12.948708 -39.405544 1.7708641
13.698999 -39.468925 1.5189536
12.395054 -39.271515 1.6807249
12.773151 -39.141701 1.7924489
13.008693 -39.236469 1.6392349
13.231882 -39.200989 1.6285478
13.175823 -38.966358 1.5043123
21.932646 -37.42841 1.6194868
21.627438 -35.953114 1.5693944
21.528303 -35.507027 1.7068013
21.284496 -35.324402 1.7173778
22.433735 -35.091999 1.5587265
21.94722 -30.710161 1.5275667
20.562325 -30.303604 1.5316077
21.16733 -30.395517 1.6761624
20.775665 -30.081503 1.5625471
20.470295 -29.479252 1.6859319
20.862608 -29.428005 1.7178262
20.065458 -29.288315 1.6903474
20.258997 -29.236898 1.6821666
20.427526 -29.18663 1.7061052
20.246454 -28.951899 1.53461
20.582701 -28.910353 1.6526127
20.722349 -28.888845 1.5489869
20.355402 -28.466549 1.5976113
20.666378 -28.1507 1.5348573
20.787861 -28.103523 1.6044204
20.522144 -27.770811 1.6834552
21.828852 -23.67584 1.7552086
19.984455 -22.593283 1.6689575
20.522417 -22.776306 1.7904764
20.486156 -22.044567 1.5287414
20.283581 -21.828365 1.7479991
12.61868 -20.168182 1.5910542
11.285975 -19.596947 1.7090057
11.950421 -19.203766 1.514605
12.369179 -19.237301 1.7461925
12.319656 -18.995983 1.7905391
14.336127 -19.031666 1.7094404
14.415753 -19.024481 1.7066212
19.93515 -16.817867 1.6395227
20.260981 -16.360449 1.7135397
19.380938 -15.428747 1.50304
19.599161 -15.448867 1.6724389
19.579155 -15.180845 1.5823336
20.163015 -15.016414 1.5755899
20.53013 -15.213265 1.6908895
20.545576 -14.371243 1.611635
11.934609 -11.671752 1.6325011
19.235733 -9.1831417 1.5308211
-67.451843 -217.14082 1.8864545
-68.765877 -211.32166 2.0055244
-68.749321 -211.16214 2.0876076
-26.95343 -206.11874 1.9701864
-31.535242 -205.61873 2.0711479
-31.447266 -205.59995 2.073844
-28.364008 -205.01129 1.8853813
-28.656342 -204.42717 1.9935149
-19.58283 -203.99783 1.985249
-19.473015 -203.99194 1.8283434
-14.628822 -202.85579 1.9063364
-13.661368 -202.83405 1.878615
-14.473444 -202.79457 1.8794168
-14.318234 -202.77771 1.8205885
-14.256269 -202.43286 1.8886558
-9.8571682 -202.2659 1.8583963
-29.104065 -201.97116 1.9618438
-11.080131 -202.14503 1.8222139
-29.22352 -201.60905 1.9404434
-29.19676 -201.52469 1.9464439
-29.019823 -201.44539 1.9013419
-5.7481461 -201.54744 1.8512049
-5.6273975 -201.50092 1.90994
-29.209494 -201.07475 1.8380877
-29.045967 -201.06125 1.8960042
-8.4881248 -201.05959 1.8367558
-7.5255418 -201.27232 1.9698266
-6.1007414 -201.02585 1.8175169
-29.41806 -200.73108 2.0792592
-29.250092 -200.82726 1.898909
-29.04525 -200.79114 1.9274702
-6.0364375 -200.99184 1.8129892
-5.7860718 -200.77287 1.9357108
-5.6820478 -200.85153 1.9943986
-4.5809221 -200.80103 1.8662517
-4.4077859 -200.81064 1.9151566
-5.8130646 -200.66306 1.8732002
-5.6220088 -200.69113 2.0415361
-1.1313205 -200.27406 2.0813496
-2.386622 -199.80257 1.8083085
-6.0611935 -199.78937 1.8130126
-2.7019088 -199.6869 1.8956438
-2.627661 -199.75029 1.8803842
-1.9638549 -199.69055 1.8956999
-1.2964079 -199.72675 1.9825472
-1.030607 -199.67535 1.9655442
-1.2354074 -199.37224 1.8016738
-1.0746822 -199.4492 2.0739958
-0.88440239 -199.45216 1.8031203
-29.408335 -199.10233 2.0067675
-29.360939 -199.14977 1.9222523
10.135302 -196.77942 1.8108749
6.6539674 -193.45988 1.9138862
10.586814 -192.75877 1.8402085
8.9601822 -192.58424 1.8176703
10.380419 -192.10924 1.9056249
10.590796 -192.11433 1.9211037
10.493103 -191.95399 1.9642471
10.58333 -191.97388 1.9711317
23.811165 -178.84938 2.0720549
25.584621 -178.41574 2.0606778
25.055742 -177.99722 1.9188811
25.269339 -178.05206 1.8026499
25.393984 -177.62401 1.8950059
22.99683 -174.85417 1.8219898
23.207172 -173.55698 1.819086
22.752537 -171.97604 1.8840438
22.813358 -172.08957 1.9375585
22.752174 -171.86176 2.0389454
32.668545 -165.94328 2.0116303
32.582386 -165.59428 1.9692601
-78.292122 -102.57175 1.8325766
14.069046 -52.051861 1.9489274
15.147772 -51.887589 1.8186421
22.354704 -48.351734 1.9765341
22.624245 -48.504799 1.8461798
23.966434 -48.065212 1.8459921
14.479039 -46.844807 1.8118573
14.267579 -46.22438 2.0822136
23.284044 -46.325649 1.8839651
23.030266 -46.127277 1.8164347
23.269632 -46.050522 1.9020261
23.494608 -45.976795 2.0033171
23.737057 -45.934872 1.9380739
23.513504 -45.848118 1.8968478
13.871326 -45.436337 2.0314455
15.920744 -45.164093 1.8153954
22.82604 -44.517174 2.0151176
23.029808 -44.354614 2.0735042
23.173557 -44.348541 2.0762274
23.188198 -43.438683 1.8503704
12.956266 -39.626839 2.0615294
12.806445 -39.38229 1.8070676
12.210863 -39.292965 1.9002788
12.417947 -39.15065 1.8728577
12.815431 -39.208256 1.8537945
12.738213 -38.953064 1.9139723
13.405519 -38.909744 1.8633039
12.848518 -38.5956 2.0301337
13.051598 -38.259163 1.9174346
13.362556 -38.251701 1.87815
13.708729 -37.950928 1.9022465
21.200062 -35.407963 2.001492
21.272305 -35.369358 1.8333844
20.642376 -30.962099 1.9035034
20.737543 -30.975191 1.9392831
20.070984 -29.259027 1.8451784
20.239285 -29.219883 1.9770145
20.644472 -29.122252 2.0726388
20.039537 -29.017488 1.9415153
20.247892 -29.022818 1.9701939
20.528358 -28.996967 1.9867809
20.768982 -28.098486 1.9165708
20.917265 -27.41415 2.0347161
21.044693 -27.389746 2.0265586
20.242306 -24.154917 2.0547924
19.80694 -22.262548 1.9328057
19.723303 -22.197979 1.9247555
19.86083 -22.172668 1.9179864
11.486586 -19.282646 1.9561015
11.840232 -19.325624 1.9993964
11.940372 -19.134325 2.0830367
12.233738 -19.083641 1.9782791
11.740925 -18.883078 2.0912654
12.627995 -18.877182 1.9389917
