# .PCD v0.7 - Point Cloud Data file format
VERSION 0.7
FIELDS x y z
SIZE 4 4 4
TYPE F F F
COUNT 1 1 1
WIDTH 1462
HEIGHT 1
VIEWPOINT 0 0 0 1 0 0 0
POINTS 1462
DATA ascii
25.009621 -9.7946711 -0.98359025
7.3795857 -9.4666939 -1.0593405
25.299538 -9.4395027 -1.1721833
6.7490802 -9.0957079 -0.92530191
25.596727 -9.1090565 -1.0440805
6.434092 -8.903657 -1.0605214
6.9288979 -8.9017954 -1.1079949
20.432339 -8.7253551 -1.0164672
25.32148 -8.7292099 -1.1073573
25.532122 -8.7303209 -1.0788878
21.004 -8.5573206 -1.1660314
25.029882 -8.4962234 -1.1235024
25.338617 -8.6701612 -1.0656306
7.6458058 -8.3714399 -0.91332471
25.079788 -8.2635498 -1.1619245
25.011028 -8.0743885 -1.1740582
21.2995 -7.5619645 -1.1083225
21.767397 -7.6788802 -1.1800855
24.803782 -7.6527047 -1.0408455
25.291267 -7.5235991 -1.0404472
20.963181 -7.2044601 -1.1400267
21.079662 -7.2261457 -1.0859741
25.129641 -7.3488598 -1.0531938
19.594212 -7.0672503 -0.97907108
24.854458 -7.1062341 -1.0556219
25.04962 -7.0126352 -1.1727605
25.234262 -7.1163354 -1.0660194
6.5242834 -6.8445458 -0.91013449
19.572632 -6.7151213 -0.92031205
24.769564 -6.8364606 -1.0520416
20.144608 -6.3445034 -1.111001
20.764313 -6.3353443 -1.1259084
22.062338 -6.4791017 -1.0142233
6.7080617 -6.0766706 -0.91737497
20.254171 -6.1114264 -1.1619973
20.592873 -6.0840807 -1.0377781
20.236927 -5.9229689 -1.0460835
20.515196 -5.7622252 -0.95493609
20.807938 -5.9869962 -0.96581644
21.463268 -5.7983871 -1.02356
21.883398 -5.8656969 -0.96980214
22.006573 -5.8491502 -0.90295309
5.6823201 -5.6039715 -0.95585507
20.636133 -5.5207686 -1.032975
20.770212 -5.5087385 -1.0278617
21.174681 -5.5236053 -1.1679932
22.160446 -5.4419889 -1.0174345
20.349583 -5.1518221 -1.1725209
20.5366 -5.1379886 -1.0555905
20.981733 -5.3135653 -0.93966681
20.498301 -4.8260694 -1.1371597
21.132277 -4.9042029 -1.0473019
20.505573 -4.5235815 -1.1494141
14.946015 -4.3177052 -0.98707628
19.796721 -4.2625546 -1.1170402
15.0397 -4.0793533 -1.0962824
19.928457 -3.5944128 -0.99319375
24.6455 -3.4528027 -1.0143952
24.370962 -3.1465981 -0.97759187
22.269806 -2.5330555 -1.0396546
26.086065 -1.7792423 -0.92294002
-38.170448 -195.21239 -0.85602331
-31.896988 -193.94406 -0.81112593
-31.500418 -194.067 -0.81586415
-31.495527 -194.05316 -0.86178905
-30.482738 -193.88022 -0.80805326
-32.030605 -193.75851 -0.84571886
-36.436466 -192.66907 -0.73283732
-25.736137 -192.31366 -0.80770564
-38.456699 -192.06853 -0.76221681
-22.336336 -192.25516 -0.85979533
-38.450916 -191.99722 -0.87012005
-38.392773 -191.93443 -0.84765953
-34.577835 -191.90271 -0.7704007
-33.851433 -191.9632 -0.83407044
-17.064688 -191.7309 -0.72841573
-15.287192 -191.76733 -0.85203695
-34.379421 -191.54364 -0.89383948
-30.700043 -191.47528 -0.73049212
-30.481995 -191.50781 -0.81702328
-29.414566 -191.46529 -0.75335187
-31.539625 -191.32031 -0.78211164
-30.988619 -191.1311 -0.72537863
-30.558681 -191.33411 -0.72180796
-29.297043 -191.22818 -0.80776179
-29.244022 -191.05988 -0.70606166
-27.531471 -190.98083 -0.77913254
-54.757404 -190.73683 -0.80114615
-29.30583 -190.60867 -0.84587616
-28.823797 -190.57803 -0.78176534
-26.289509 -190.6239 -0.75999784
-28.666759 -190.47 -0.8510114
-26.904737 -190.48218 -0.84474635
-19.611151 -190.23764 -0.76307094
-26.740334 -190.07938 -0.85682166
-26.6966 -190.07622 -0.88576108
-24.120398 -190.05446 -0.81031191
-27.561646 -189.88858 -0.89283639
-34.443073 -189.29607 -0.77795631
-21.808088 -189.22586 -0.8940835
-19.443285 -188.97984 -0.78976846
-18.276527 -188.52824 -0.71324652
-15.417345 -187.93723 -0.79498971
-43.267933 -187.5797 -0.89901662
-34.825043 -187.30145 -0.8845017
-8.8966684 -183.71388 -0.85495603
-8.4266891 -182.91692 -0.84616297
-4.5462155 -176.66949 -0.820499
23.093607 -174.39426 -0.69131094
23.585659 -170.42355 -0.64025074
23.548859 -170.26579 -0.64537245
22.72295 -169.85944 -0.68977094
23.560219 -169.94662 -0.65190232
22.427313 -169.6366 -0.69034481
22.664951 -169.75041 -0.67756736
21.757166 -168.5753 -0.79045314
11.006827 -53.857353 -0.74486262
3.938453 -53.002724 -0.6564852
0.70263541 -51.854721 -0.61710042
2.8989205 -51.877438 -0.86392957
3.4908128 -51.69244 -0.76848644
6.9903893 -51.300896 -0.8346113
8.2941036 -51.339451 -0.88341618
10.111588 -51.595825 -0.86130142
10.210013 -51.57412 -0.86997598
11.131905 -51.304066 -0.7506392
3.4517131 -51.015244 -0.8448
7.0907564 -51.280582 -0.84063405
7.0487952 -50.830139 -0.88253188
10.280846 -50.737358 -0.68960035
1.0287814 -50.591488 -0.61838627
2.8022566 -50.557648 -0.8607412
3.5171177 -50.626793 -0.7837072
10.385978 -50.466911 -0.75098503
3.349946 -49.895973 -0.80934739
6.7551131 -50.070988 -0.71368408
7.1508861 -49.868019 -0.71601778
6.968452 -49.775833 -0.74321514
8.196106 -49.519062 -0.66676897
9.0903578 -49.695675 -0.69633752
10.192295 -49.543133 -0.6647476
10.251855 -49.620342 -0.63579404
10.575373 -49.640736 -0.84287041
7.0813327 -49.367107 -0.76271874
10.50333 -49.368004 -0.75432646
21.930483 -49.312859 -0.63148046
22.660694 -49.204197 -0.71166217
10.092829 -49.026337 -0.80538017
10.629152 -49.009087 -0.64012408
21.834017 -49.083496 -0.84355855
22.041597 -48.93602 -0.81008571
22.257301 -49.012756 -0.78847277
22.615227 -49.081207 -0.66800427
9.8376989 -48.880989 -0.76403099
10.394351 -48.793812 -0.77587587
10.652063 -48.701096 -0.69652992
22.076527 -48.694084 -0.75837564
22.330473 -48.698185 -0.74068093
22.623814 -48.726826 -0.69132543
22.995659 -48.677841 -0.74758834
6.6983294 -48.469246 -0.83208787
10.013152 -48.454464 -0.89786077
10.405001 -48.377502 -0.76607931
22.307922 -48.5317 -0.70259684
23.105848 -48.426857 -0.82436985
10.398181 -48.107452 -0.82890362
10.543565 -48.071407 -0.82937241
22.410976 -48.288589 -0.70191622
22.684277 -48.092083 -0.7059083
22.922327 -48.080006 -0.85671574
23.173012 -48.029987 -0.62245077
6.4969978 -47.912472 -0.73168707
7.1898112 -47.721924 -0.80357623
10.4367 -47.759449 -0.89965373
10.667834 -47.86491 -0.79226023
11.458145 -47.759663 -0.76469183
22.566265 -47.918594 -0.71694005
22.816921 -47.921967 -0.62029898
28.695679 -47.756184 -0.72292757
7.005228 -47.63118 -0.7686522
10.696161 -47.544136 -0.70419562
10.87932 -47.516228 -0.66736472
11.231346 -47.614693 -0.7989285
11.545918 -47.58614 -0.86813164
27.796722 -47.470299 -0.68059444
7.0963469 -47.197792 -0.71491122
7.3965569 -47.257236 -0.68337798
10.4757 -47.236736 -0.77723771
10.641452 -47.263668 -0.71823752
11.041107 -47.191833 -0.69229233
11.20963 -47.188721 -0.76288939
11.510908 -47.292465 -0.77807939
11.859479 -47.24065 -0.71797353
10.584714 -46.943539 -0.78841311
11.067584 -46.914268 -0.65672785
27.890333 -46.881077 -0.78641099
10.034576 -46.796814 -0.8855713
10.972784 -46.78804 -0.738765
14.321445 -46.541046 -0.84288257
27.986725 -46.687298 -0.83734816
28.292368 -46.735271 -0.87107259
28.596096 -46.699348 -0.70305592
14.16672 -46.260555 -0.71827286
22.148373 -46.325108 -0.6811533
23.407099 -46.419308 -0.61356997
23.745764 -46.35733 -0.67115748
28.608627 -46.301716 -0.83357573
14.659527 -46.00222 -0.72003829
28.665756 -45.929504 -0.80782396
28.48814 -45.672741 -0.87962091
28.618637 -45.842819 -0.75967777
28.679815 -45.452255 -0.8941763
29.199848 -45.350266 -0.7378912
27.331573 -45.018993 -0.89573997
28.669485 -45.208817 -0.7846759
28.972744 -45.119442 -0.71976906
29.11557 -45.16592 -0.69989812
29.418699 -45.103191 -0.7310937
28.940197 -44.886497 -0.76990271
28.604187 -44.637741 -0.73095626
28.147879 -44.2094 -0.84245485
28.527521 -44.069752 -0.85660088
21.801085 -42.58506 -0.87964582
21.981258 -42.318363 -0.75208598
22.120632 -42.159363 -0.79369879
10.690756 -41.983303 -0.71659899
21.609194 -41.920372 -0.71934485
9.7848587 -41.520195 -0.74332821
9.9338131 -41.459766 -0.723988
10.292786 -41.687336 -0.69853115
22.682117 -41.120445 -0.65216535
21.82299 -40.686283 -0.61163324
9.3699951 -40.350967 -0.67404062
21.873951 -40.298904 -0.74891418
9.5022783 -40.001213 -0.75966728
27.207949 -39.669769 -0.74347758
27.408083 -39.735077 -0.8292976
27.098812 -39.262104 -0.74196345
27.68652 -39.16906 -0.76571351
27.333836 -38.997997 -0.83138967
26.594217 -38.06406 -0.67422628
15.092803 -37.609779 -0.64349449
14.142154 -37.009899 -0.74185461
26.625021 -37.05225 -0.70002586
21.136353 -36.204391 -0.84884983
10.295769 -35.736008 -0.8088609
9.4938917 -35.51083 -0.77493149
10.068788 -35.401756 -0.78499323
10.23085 -35.603809 -0.75720263
-110.64745 -35.106125 -0.63168669
-110.26935 -35.24527 -0.68649173
9.1261082 -35.284332 -0.80502093
10.345157 -35.341953 -0.76950788
-110.62608 -35.092812 -0.68879384
10.577212 -34.91502 -0.63285398
8.6055784 -34.74202 -0.8802712
10.465202 -34.593388 -0.80881858
35.639656 -34.554279 -0.71930933
9.4115658 -34.325417 -0.65729606
9.7417278 -34.283924 -0.74748254
10.275759 -34.27739 -0.7868163
9.407733 -34.105919 -0.78913152
10.261058 -34.04578 -0.83964819
8.6853094 -33.678917 -0.75529027
9.5478745 -33.615067 -0.84736061
9.9020157 -33.717373 -0.63191634
10.511208 -33.874649 -0.68963373
9.6374168 -33.568813 -0.77154094
9.9712353 -33.510311 -0.70692933
10.877161 -33.447701 -0.76830161
10.123646 -33.081238 -0.64174938
10.226952 -33.088623 -0.66025627
10.869057 -33.167671 -0.81282365
9.0587034 -32.816883 -0.88070363
9.393671 -32.805305 -0.76787579
10.953733 -32.799267 -0.8219794
-99.780174 -32.566967 -0.62968934
-99.042694 -32.608837 -0.72725707
-98.914948 -32.598732 -0.69405872
-98.652252 -32.594414 -0.70509905
8.818531 -32.480988 -0.82675648
9.1412764 -32.586792 -0.88954496
9.7723351 -32.611622 -0.67002696
9.9141808 -32.549007 -0.80638617
10.416692 -32.653332 -0.83857548
10.707437 -32.645016 -0.74680567
-111.49043 -32.206532 -0.81557375
-100.07773 -32.288193 -0.78913414
-99.74054 -32.191948 -0.75893724
-99.131653 -32.210163 -0.79165006
-98.914467 -32.338612 -0.76282173
-98.5616 -32.320038 -0.79743141
-98.342285 -32.236679 -0.83391446
9.1321106 -32.148849 -0.74534535
9.5748692 -32.124107 -0.88824147
9.7136993 -32.274704 -0.753501
9.9315081 -32.393173 -0.64133859
10.291022 -32.150921 -0.68418467
-99.04023 -31.954048 -0.65763783
-98.890549 -32.0084 -0.70556188
-98.576073 -31.995073 -0.67488676
7.0503297 -31.979519 -0.89455181
8.7798843 -31.992817 -0.86551821
9.1341467 -32.03083 -0.6854527
9.4604216 -32.071144 -0.70731759
9.7385845 -32.067638 -0.77314329
10.364347 -31.856686 -0.73818982
-99.187546 -31.572569 -0.78258175
-98.929138 -31.529367 -0.68085784
-98.443726 -31.608728 -0.65195692
-98.378464 -31.676624 -0.70877397
8.6179495 -31.555872 -0.63227093
8.919261 -31.611767 -0.70711803
9.3793821 -31.583067 -0.71746868
9.7326698 -31.70496 -0.64402574
10.053445 -31.63266 -0.64618623
10.277176 -31.729111 -0.87182695
27.05607 -31.77648 -0.85955656
-99.173286 -31.332956 -0.7827425
-98.888336 -31.462557 -0.77863222
8.9203606 -31.287878 -0.68672323
9.0959167 -31.249578 -0.69231081
9.4970303 -31.444962 -0.70359528
9.7085819 -31.367771 -0.75542915
10.014568 -31.400316 -0.70190531
10.306953 -31.29472 -0.79082751
21.741905 -31.354586 -0.68915945
27.555779 -31.253719 -0.83935988
-111.53641 -30.979351 -0.85079885
-99.076088 -30.938002 -0.70295322
-98.543373 -31.161791 -0.79854155
8.6038504 -30.996262 -0.81543046
8.855175 -30.980028 -0.71698308
9.0236549 -31.196623 -0.72643173
8.8799992 -30.777138 -0.77713412
9.3247681 -30.683613 -0.71994114
27.500849 -30.67996 -0.75945938
27.693806 -30.61924 -0.6775198
9.4667501 -30.477482 -0.69163859
9.8161983 -30.487505 -0.72459638
10.188224 -30.416653 -0.7158969
10.395422 -30.461048 -0.78336066
10.59209 -30.351376 -0.84280574
27.494913 -30.499466 -0.67013389
9.7773371 -30.138567 -0.72920495
10.424421 -30.264149 -0.70209789
21.708336 -30.171309 -0.74658865
27.784521 -30.090973 -0.73973453
-97.057579 -29.774748 -0.60802114
8.6886482 -29.920408 -0.644113
8.8160362 -29.936693 -0.71365958
9.5327568 -29.822758 -0.68930334
9.8539333 -29.900879 -0.7305212
10.006135 -29.907187 -0.74778795
27.727381 -29.822554 -0.67761952
-97.153801 -29.505438 -0.72725582
-96.847366 -29.435301 -0.62327778
9.4285746 -29.622156 -0.69313407
10.597808 -29.426962 -0.6340282
21.73955 -29.517891 -0.75491989
22.059002 -29.687624 -0.83373553
-97.057655 -29.274963 -0.78874749
-96.427094 -29.148422 -0.76451862
9.2830715 -29.103928 -0.71521884
9.8097296 -29.242039 -0.62135869
26.493938 -29.119865 -0.8785525
27.516748 -29.26049 -0.86304295
-97.083588 -29.006004 -0.83285236
8.3962002 -28.888241 -0.84738326
9.1554785 -29.03199 -0.76892757
9.5258541 -28.989559 -0.72149169
9.6876459 -28.984327 -0.67198491
21.464911 -28.768394 -0.73987961
8.93361 -28.282799 -0.71471101
9.5496025 -28.268599 -0.71740139
9.0976686 -28.036564 -0.71362966
9.3814507 -28.095516 -0.71838582
26.184708 -27.768345 -0.89980865
27.571468 -27.623503 -0.73650938
8.4037895 -27.557877 -0.84733599
26.856363 -27.076012 -0.7569797
26.914736 -26.930389 -0.79482317
26.635689 -26.225912 -0.84420347
7.9242015 -24.985983 -0.82379436
9.2042484 -24.904474 -0.61979115
7.6731019 -24.61552 -0.69161093
8.2823277 -24.753458 -0.70033038
25.50635 -24.6087 -0.87565285
7.8492374 -24.552629 -0.64798641
6.4655948 -24.078604 -0.75460732
8.2409229 -24.113874 -0.63577765
7.0758924 -23.923594 -0.77466834
8.4433327 -23.743069 -0.88054311
8.1537762 -23.693974 -0.72385538
8.481493 -23.504375 -0.70659405
21.812887 -22.939371 -0.7298134
20.587791 -21.906731 -0.69983214
26.344202 -22.196091 -0.78333074
26.502161 -22.143692 -0.84513855
26.413229 -21.011112 -0.89466476
26.731522 -21.293947 -0.75703442
22.784252 -20.699484 -0.78390253
27.16522 -20.648336 -0.88377696
8.1564789 -20.27787 -0.677495
7.8020592 -20.018578 -0.85266089
26.562111 -19.038221 -0.77921593
12.51396 -18.526897 -0.67222828
2.4953473 -18.258059 -0.71773523
11.831297 -18.205875 -0.76968902
11.785265 -17.605215 -0.81693935
7.6139894 -17.222872 -0.7213552
8.6542892 -17.177063 -0.76023966
8.9131727 -17.172825 -0.7731384
9.4122639 -17.120785 -0.67544472
-1.6701055 -16.869131 -0.69192523
-1.489091 -16.84495 -0.75017232
7.6226335 -17.08021 -0.74071342
8.4943037 -16.920462 -0.7136721
8.1966524 -16.722622 -0.68929827
8.9842634 -16.784603 -0.87633944
7.3328915 -16.338207 -0.83562899
7.7134614 -16.246202 -0.77170026
8.2225723 -16.450268 -0.71809131
8.5249071 -16.332758 -0.68120575
8.8590431 -16.409311 -0.71338171
7.6613016 -16.037163 -0.83331937
8.6706657 -16.031281 -0.80820441
9.1321468 -16.048428 -0.69755423
9.4009819 -16.012701 -0.75153565
8.6840982 -15.839511 -0.64455205
8.7331533 -15.890779 -0.71533126
7.7224393 -15.476419 -0.67726368
8.0006866 -15.414416 -0.70955676
8.5071783 -15.436215 -0.71099275
26.385197 -15.354865 -0.72059274
7.1248908 -15.077076 -0.84816027
7.2949371 -15.025568 -0.81055462
7.7088451 -15.232216 -0.84479117
8.2555904 -15.16993 -0.67984992
8.5739832 -15.094116 -0.73207438
8.7284708 -15.227258 -0.761801
26.302498 -15.28659 -0.78854179
6.9849205 -14.740879 -0.82186151
7.2865205 -14.848232 -0.82797664
7.6142645 -14.717413 -0.73501402
8.0568075 -14.981901 -0.67313099
8.3447599 -14.907466 -0.68029177
8.4812593 -14.885669 -0.71014261
8.8209457 -14.806745 -0.66820419
6.8067451 -14.651957 -0.66591424
7.3648438 -14.644531 -0.67934495
7.6702375 -14.558821 -0.63735217
7.9425201 -14.443968 -0.76648217
8.3901863 -14.688489 -0.71559775
8.5528307 -14.571694 -0.72318548
14.906886 -14.527057 -0.79947215
15.298903 -14.54052 -0.68196177
24.60951 -14.691151 -0.72071922
34.954906 -14.429994 -0.84664935
7.1187968 -14.243176 -0.8264873
7.7351923 -14.128228 -0.77924776
7.9638433 -14.177866 -0.67422843
8.2600727 -14.247738 -0.70834625
8.578598 -14.206189 -0.68380034
14.760608 -14.177095 -0.62711477
25.448177 -14.323373 -0.86278856
25.546621 -14.313803 -0.87751913
7.2925014 -14.032457 -0.77027011
7.728828 -13.930936 -0.75328279
7.9554381 -14.039012 -0.76259172
8.3027534 -14.006932 -0.78088331
8.4088087 -14.08925 -0.8170805
15.350563 -14.038177 -0.76195496
7.5608468 -13.660053 -0.84968585
7.9258027 -13.688695 -0.75850338
8.6122761 -13.587087 -0.76251
14.927814 -13.668846 -0.67061019
15.066967 -13.700491 -0.75146526
7.4230566 -13.420448 -0.76447988
8.0040646 -13.333826 -0.75728667
8.55616 -13.321652 -0.74326926
8.7474947 -13.470948 -0.73105067
14.92392 -13.269495 -0.82516468
15.095428 -13.298033 -0.81017101
7.7996497 -13.129607 -0.69626325
7.8190742 -13.127441 -0.7018016
8.3254051 -13.028906 -0.72647309
8.4665651 -12.94978 -0.6732232
25.659243 -13.082619 -0.84038615
26.600088 -13.075282 -0.7443037
7.8669281 -12.694741 -0.72881144
8.4777336 -12.733135 -0.62131357
8.0265493 -12.371469 -0.68068701
8.298439 -12.393237 -0.7066865
7.8496885 -12.276499 -0.8357386
8.2332096 -12.234369 -0.72690165
7.9861965 -11.951056 -0.79079467
14.27372 -11.680723 -0.62410009
25.455851 -11.574169 -0.79495215
7.0113974 -10.818278 -0.77637953
25.651232 -11.030869 -0.83776569
7.6070371 -10.082574 -0.68211812
7.6585994 -9.8653049 -0.67955232
25.886473 -9.650176 -0.78058255
7.3955302 -9.396409 -0.61218572
14.746029 -9.3506212 -0.64633572
6.8470569 -9.1266737 -0.81104898
6.5558019 -8.9054937 -0.82433885
6.8183484 -8.7905054 -0.87591189
7.0990944 -8.871994 -0.74468732
7.5274148 -8.9793701 -0.60094708
20.46348 -8.7325678 -0.73562193
6.8728905 -8.5039301 -0.80486733
6.9604635 -8.4863262 -0.82001102
7.6432018 -8.5194454 -0.67624855
20.520256 -8.6771574 -0.7751289
6.8816571 -8.191329 -0.68960476
6.7701392 -8.0333548 -0.82312316
7.1108727 -8.021349 -0.69977582
7.3369718 -8.0434885 -0.63676816
14.326978 -7.6727571 -0.71051061
20.143663 -7.6164441 -0.85188597
6.7243767 -7.3297505 -0.89482969
14.165567 -7.414814 -0.67011356
14.759281 -7.3778553 -0.69753122
20.06465 -7.2285223 -0.81037217
14.945063 -7.1604218 -0.60442394
15.597219 -7.0513783 -0.67320037
25.010691 -6.9633331 -0.8506276
14.303031 -6.8332286 -0.70893902
19.529676 -6.6853576 -0.887187
19.835537 -6.829092 -0.68565357
6.203516 -6.4816875 -0.89258623
25.294767 -6.3440547 -0.65955544
15.354355 -6.0868216 -0.81226969
20.425461 -6.0828018 -0.88245517
25.850164 -6.031177 -0.66043085
14.988938 -5.7125125 -0.82850713
15.26059 -5.785315 -0.88659108
15.397228 -5.8712921 -0.62691438
15.683868 -5.7161107 -0.68300474
21.165058 -5.9945965 -0.87615871
21.349205 -5.7806087 -0.83070111
21.909313 -5.8210454 -0.85071421
25.160101 -5.8858862 -0.72462559
14.943379 -5.6115856 -0.72285497
15.155663 -5.672823 -0.70960319
15.365796 -5.6167827 -0.8022089
20.975618 -5.4957972 -0.82853901
21.837685 -5.5298634 -0.79780102
22.10276 -5.5686426 -0.64400077
15.188383 -5.2378802 -0.76447546
21.234442 -5.2210045 -0.8324616
14.899336 -4.9010391 -0.70226312
15.125767 -4.9699764 -0.7139377
15.395594 -5.0061393 -0.67643183
25.05953 -4.9290471 -0.63807327
14.680323 -4.7042255 -0.66351128
14.860485 -4.6835442 -0.73849231
15.059314 -4.667429 -0.83266556
23.954834 -4.6328573 -0.69581282
26.346161 -4.6615195 -0.79187888
26.500212 -4.5424795 -0.76974273
20.11253 -4.3336449 -0.61846268
24.600357 -4.2489905 -0.75779587
26.380999 -4.4457135 -0.60097706
26.493979 -4.3226333 -0.69854665
14.986596 -4.0520592 -0.73275959
24.765488 -4.1110525 -0.70895964
26.247238 -4.0222392 -0.81979269
24.73163 -3.7422075 -0.88494796
25.536449 -3.3310835 -0.71111953
25.039438 -3.1774318 -0.79355842
25.561115 -3.2963583 -0.76369733
25.102652 -2.8660414 -0.68126667
25.96059 -2.3418951 -0.62302059
26.431139 -2.1780977 -0.71541375
26.246841 -1.9565302 -0.65832639
24.697889 -1.6980256 -0.84464663
26.018587 -1.7217417 -0.79915273
26.215912 -1.6713778 -0.72159374
26.015337 -1.395155 -0.87156433
25.619003 0.12005196 -0.63889897
-68.523628 -211.68588 -0.33939815
-68.762581 -211.32552 -0.58095884
-68.593842 -211.42921 -0.55867213
-68.82901 -211.06152 -0.43729365
-68.667221 -211.16641 -0.43896329
-69.029778 -210.13007 -0.55939835
-68.866745 -210.09538 -0.41846934
-69.725998 -204.71637 -0.38566315
-24.461433 -194.65457 -0.48452425
-20.422495 -193.68616 -0.48067063
-20.302521 -193.58708 -0.48304045
-20.41246 -193.29521 -0.3053098
-19.390018 -192.02521 -0.56299752
-33.638683 -191.71567 -0.58862603
-30.726236 -191.43347 -0.53531241
-28.771276 -190.87263 -0.56748468
-28.362446 -190.68871 -0.57869583
-27.787138 -190.50957 -0.50243616
-25.448109 -190.11293 -0.51308531
-34.948807 -187.87604 -0.35137516
-15.006829 -187.70262 -0.35747451
-13.465817 -187.36554 -0.54684716
-28.627041 -186.6532 -0.48951837
-28.877356 -186.53873 -0.33610836
-27.975763 -186.45494 -0.37637559
-5.9719181 -186.3528 -0.49644423
-19.41477 -185.77083 -0.34916279
-24.412348 -185.55757 -0.33947578
-20.155247 -185.1963 -0.35360947
-29.882147 -184.32208 -0.36785135
-5.1405797 -174.08153 -0.47561812
23.307507 -173.73595 -0.30321875
23.066576 -173.60219 -0.37473845
23.922674 -171.00853 -0.48782116
23.607527 -170.46313 -0.36216804
23.539402 -170.2494 -0.42158255
22.667088 -169.88364 -0.48920017
23.281101 -169.86719 -0.47723904
23.50802 -169.94829 -0.42704096
22.383461 -169.62747 -0.42679343
22.669039 -169.66893 -0.42716992
22.245205 -169.2764 -0.5304848
22.645046 -169.43008 -0.41518176
21.72352 -169.01721 -0.4063406
21.574278 -167.57042 -0.42012268
22.676624 -166.01068 -0.48438442
2.6785619 -155.02562 -0.38936153
30.136686 -133.34097 -0.47162342
29.810238 -133.06914 -0.51221091
-69.394424 -99.21154 -0.51824278
-9.6222048 -53.454163 -0.37107304
-8.009099 -52.073139 -0.50282365
-7.5776234 -52.084251 -0.49918377
14.653799 -51.752552 -0.42866144
15.129579 -51.171276 -0.4790388
15.357862 -51.115562 -0.45325634
15.246193 -50.863159 -0.4451153
10.571517 -50.082924 -0.48896566
11.097703 -49.633537 -0.56240678
22.922752 -49.58799 -0.55387223
22.100342 -49.313221 -0.36193696
22.384132 -49.414288 -0.53010923
22.524008 -49.219463 -0.58866459
22.386967 -48.927483 -0.57801503
22.690044 -49.138771 -0.52519315
10.125622 -48.816032 -0.54360807
10.336475 -48.708252 -0.47884607
10.577364 -48.852985 -0.59403777
22.358847 -48.759315 -0.43842414
22.708986 -48.820087 -0.52750838
22.811739 -48.808121 -0.56229907
10.354824 -48.492977 -0.54444486
10.685863 -48.427921 -0.56922656
10.94385 -48.375648 -0.39613026
11.32203 -48.556995 -0.580899
22.359699 -48.594833 -0.42740762
22.521061 -48.333412 -0.53469473
22.430204 -48.180862 -0.50723708
22.604544 -48.144394 -0.48591855
22.663559 -47.864231 -0.4646551
11.272866 -47.637066 -0.59264868
22.61384 -47.507275 -0.5529111
11.042302 -47.272457 -0.52669924
11.117506 -47.265778 -0.54801261
10.74789 -46.918343 -0.56828171
14.831424 -46.851303 -0.39212599
10.440255 -46.599983 -0.57018769
14.051375 -46.579281 -0.56386262
14.520185 -46.523396 -0.58890444
23.387129 -46.516289 -0.51554465
23.505417 -46.503803 -0.31471267
14.236221 -46.361012 -0.48898596
14.468747 -46.465111 -0.30983731
14.734243 -46.393612 -0.38757443
23.322403 -46.334396 -0.42849571
23.533142 -46.37878 -0.41363567
23.844511 -46.32671 -0.41270325
24.129585 -46.461395 -0.40278995
14.095586 -45.947323 -0.59726769
23.91876 -46.176773 -0.34223738
24.103397 -46.063362 -0.31866398
14.412429 -45.853931 -0.55152053
22.068176 -45.614971 -0.46097609
14.433876 -45.404217 -0.31887084
28.818533 -45.482132 -0.41012973
29.191467 -45.34626 -0.54302698
14.415762 -45.158615 -0.39689153
29.093151 -45.237988 -0.45446399
29.039547 -44.981762 -0.55970848
16.073973 -44.031322 -0.41384265
10.478873 -42.065651 -0.58581501
10.43418 -41.970539 -0.56664348
21.547401 -41.963459 -0.46807528
9.7196398 -41.302547 -0.51168591
22.853802 -41.14893 -0.46367115
10.425385 -41.015991 -0.49256259
22.129148 -40.934883 -0.43348092
21.78759 -40.713753 -0.40077418
9.2877579 -40.451889 -0.59697551
21.850874 -40.389984 -0.50610042
21.962425 -40.345295 -0.38199657
22.192465 -39.817158 -0.52753937
22.436943 -39.778992 -0.43448296
22.510447 -39.771915 -0.37384602
22.422508 -39.518539 -0.41170198
27.5086 -38.970104 -0.56759328
14.80173 -38.362148 -0.40048414
27.214165 -38.101379 -0.50716603
27.604288 -38.154503 -0.50968647
14.804631 -37.881275 -0.49319059
15.038799 -37.800938 -0.41313481
27.021412 -38.047005 -0.55061579
14.265308 -37.698658 -0.4936823
14.866778 -37.7281 -0.43784475
14.152275 -37.145073 -0.30014968
14.423685 -36.893543 -0.49441653
21.175467 -35.904579 -0.44267616
20.541597 -35.4352 -0.48494342
-97.746063 -34.587063 -0.38265115
1.370083 -34.209114 -0.50024456
21.397997 -34.288071 -0.3205443
9.8705044 -34.010395 -0.53248709
-99.974174 -33.354073 -0.30188563
-99.197426 -32.724636 -0.49686027
-98.564392 -32.766502 -0.47465873
9.9101696 -32.8853 -0.55295974
-100.07078 -32.479012 -0.43556428
-99.897346 -32.654961 -0.38244975
-99.347015 -32.584118 -0.42687222
-99.225098 -32.621651 -0.44049937
9.832202 -32.53056 -0.34553766
9.9049816 -32.528263 -0.49347922
-99.938744 -32.331261 -0.48418194
-99.378685 -32.355976 -0.40546814
-99.087593 -32.350903 -0.56650931
-98.824829 -32.17033 -0.54444581
-98.560669 -32.165657 -0.54768968
9.7443247 -32.257854 -0.53697276
10.17734 -32.354229 -0.55322778
-100.23307 -31.935459 -0.35074931
-100.08506 -31.964682 -0.48400202
-99.134949 -31.831755 -0.55452859
-98.911011 -32.083664 -0.58859444
-98.633324 -32.078403 -0.55753797
-98.328407 -32.036781 -0.54132754
9.5300894 -31.952309 -0.54459691
9.7833729 -31.952209 -0.48236257
-98.467705 -31.55617 -0.5776521
8.526557 -31.579073 -0.59896719
9.1320314 -31.623684 -0.58336657
9.5096674 -31.675058 -0.4524385
9.6546116 -31.655064 -0.46834287
-99.068298 -31.230642 -0.5539493
-98.985489 -31.230392 -0.57581723
21.707737 -31.339268 -0.51926231
8.9662447 -31.001932 -0.48373556
9.76929 -31.032999 -0.56529367
10.027273 -31.089016 -0.50580674
-85.862389 -30.614857 -0.32443014
9.8423882 -30.821281 -0.46474004
9.941988 -30.79184 -0.52627987
-85.606216 -30.465614 -0.32141429
9.1723232 -30.32843 -0.35289741
9.3732204 -30.360973 -0.55735987
10.396116 -30.465443 -0.57941276
-98.863037 -30.130957 -0.464753
9.2797279 -30.114902 -0.41163754
9.4367485 -30.06937 -0.48465371
21.592253 -30.245893 -0.38699946
21.850214 -30.122438 -0.57502657
-99.056595 -29.821447 -0.46043071
-98.57415 -29.819695 -0.49202758
-91.34182 -29.715094 -0.49055371
9.6565418 -29.944515 -0.48353627
21.474773 -29.776506 -0.45226544
-97.986526 -29.491482 -0.46343222
-91.363152 -29.679998 -0.38165247
-85.624763 -29.514786 -0.35810572
-85.367088 -29.559753 -0.35491997
10.081992 -29.5257 -0.44688118
10.581562 -29.419527 -0.59525561
-97.886688 -29.304417 -0.48413113
-96.803436 -29.374498 -0.59083784
-85.950577 -29.322388 -0.38556516
-85.558716 -29.23312 -0.39337009
-85.337944 -29.210314 -0.36541367
10.460023 -29.330719 -0.57463688
20.693558 -29.366346 -0.415407
-91.627502 -28.817749 -0.48875618
-85.575806 -28.980448 -0.38643545
-85.330238 -29.050987 -0.31239259
22.004227 -28.816999 -0.30377352
9.4411316 -26.10533 -0.3861424
27.228441 -26.371803 -0.3905099
-81.701782 -25.653744 -0.31914914
-81.500237 -25.599737 -0.36848029
9.3738785 -25.525314 -0.37352526
27.340378 -25.649229 -0.51010531
-81.58651 -25.163465 -0.37166631
9.3359289 -24.931206 -0.46969911
7.7787533 -24.554323 -0.57596636
8.8288507 -24.33264 -0.49373043
9.0821123 -24.315065 -0.55659366
9.5616884 -24.465485 -0.5402903
9.658041 -24.512287 -0.52762967
21.777771 -24.466763 -0.42139533
8.6652346 -24.285717 -0.58382845
8.8686428 -24.187077 -0.49610126
9.5271835 -24.040205 -0.43425614
9.913167 -24.099251 -0.5815419
27.522757 -24.138592 -0.5773598
9.284687 -23.770861 -0.35572892
9.4643583 -23.815903 -0.48918054
7.895947 -23.637629 -0.52071798
8.3026075 -23.456709 -0.58792192
8.8553648 -23.520649 -0.44991645
9.0391407 -23.595589 -0.34652027
8.3177223 -23.32233 -0.37721801
9.1039419 -23.293024 -0.37909475
8.5204926 -22.941299 -0.43356675
9.1432867 -22.883097 -0.39875561
20.631645 -23.065598 -0.34192672
21.41819 -23.033976 -0.33136281
27.20149 -22.293203 -0.42344117
-5.987258 -21.647692 -0.50249714
20.623831 -21.714584 -0.49277064
-6.0169654 -21.529495 -0.5033198
8.4204321 -21.521584 -0.3227585
-11.434433 -20.479126 -0.4802832
9.2312212 -19.581768 -0.53526783
-11.976173 -19.490772 -0.45394817
-7.1076989 -18.917175 -0.54374254
12.647438 -18.619286 -0.38923362
14.987552 -18.797279 -0.57037914
20.050201 -18.460869 -0.54747593
8.8707104 -17.206036 -0.58139527
8.822814 -17.088461 -0.45816407
6.7151151 -16.366602 -0.59657931
8.9468021 -16.169298 -0.53803521
9.2283783 -16.024996 -0.57219261
7.2803321 -15.63629 -0.50437844
19.629917 -15.601212 -0.40472752
7.633904 -15.361483 -0.59495312
8.0457783 -15.459126 -0.52819204
8.6037722 -15.412507 -0.55423427
8.3598175 -15.114812 -0.58893311
8.3540907 -14.973265 -0.45581573
8.5006447 -14.839618 -0.54363877
7.4871368 -14.650424 -0.53189641
14.816699 -14.615048 -0.57712197
19.731319 -14.660039 -0.54646784
14.656866 -14.185998 -0.58999926
14.708447 -14.175833 -0.58671087
7.4332876 -13.929266 -0.56026417
7.6200018 -14.071081 -0.51034784
7.91711 -13.831151 -0.53007865
8.8418417 -13.985323 -0.46408886
14.620501 -13.724371 -0.4737227
12.308059 -13.314095 -0.38486367
26.985632 -13.48911 -0.55037642
7.3906727 -13.030368 -0.46065244
8.2345438 -12.948841 -0.54834646
8.5207825 -12.98614 -0.54206687
8.7948732 -12.952946 -0.4735015
8.4480114 -12.849564 -0.57631731
12.822943 -12.353955 -0.4012562
26.340347 -12.349355 -0.47121176
14.68845 -12.242849 -0.4753255
14.889999 -12.259514 -0.43022522
14.57809 -11.402281 -0.57359636
14.567267 -11.259065 -0.54826337
14.302861 -10.90486 -0.3093648
14.495025 -10.948615 -0.33267018
14.773328 -10.879066 -0.4514035
26.251287 -10.923441 -0.5907082
25.862921 -10.584814 -0.5872134
9.1728907 -9.8401661 -0.51802766
14.521622 -9.6487083 -0.39432323
7.495605 -9.3247051 -0.59518665
13.637951 -9.2758455 -0.32915476
7.4931984 -8.9889622 -0.58228457
7.1633716 -8.128706 -0.43140551
7.2633891 -8.2905693 -0.59223121
6.9561849 -7.8170977 -0.58951795
7.2641716 -8.0085764 -0.48995608
7.6197557 -8.0688496 -0.59736705
14.347484 -7.9176893 -0.36050722
14.486993 -7.9802532 -0.45645609
7.0803561 -7.6282711 -0.55315268
7.5120492 -7.728508 -0.5433625
14.286105 -7.6338234 -0.48619157
14.258734 -7.2939138 -0.40509441
14.960979 -7.2966728 -0.49761486
7.911469 -7.0086188 -0.49133795
25.686163 -7.0491729 -0.59458816
7.4943585 -6.6943812 -0.5483194
7.6310482 -6.7032838 -0.5226056
7.9097342 -6.7272468 -0.45569468
14.445528 -6.6021981 -0.52232981
19.928751 -6.8359084 -0.57601339
7.7038698 -6.567338 -0.52756131
14.519452 -6.5644698 -0.53351516
15.611768 -6.4632125 -0.57927138
15.261895 -6.2484035 -0.47896743
13.915972 -5.9329119 -0.57380974
14.119841 -5.9476604 -0.4154726
15.203465 -5.85043 -0.44680393
15.371473 -5.8288217 -0.54924393
14.999072 -5.5498486 -0.52170825
15.136916 -5.5419841 -0.43373251
15.0772 -5.1823702 -0.43767595
15.379745 -5.1232467 -0.44941512
24.955109 -5.1114993 -0.47828698
25.488268 -5.3412428 -0.56554872
14.90741 -4.9752412 -0.46729699
15.041051 -4.9720011 -0.55225146
14.487217 -4.7561674 -0.50044334
15.005704 -4.6295595 -0.4586086
14.654114 -4.3077464 -0.54983836
14.92161 -4.3573813 -0.38793528
26.27038 -4.3874435 -0.46550003
26.440638 -4.3449535 -0.51983869
26.311979 -3.7506173 -0.50247514
14.447586 -3.1974196 -0.54521102
24.943386 -2.7304158 -0.53777134
25.977646 -2.3648288 -0.5452041
-68.623009 -211.93219 -0.081267253
-68.960236 -211.49777 -0.094764285
-68.898788 -210.93625 -0.0094951531
-68.793083 -210.86176 -0.17445894
-69.031929 -210.2747 -0.2401884
-69.691879 -205.17914 -0.22310913
-19.523624 -193.64854 -0.27899599
-20.240112 -193.03619 -0.19473997
-14.335771 -193.03941 -0.038529895
-13.94716 -192.76237 -0.18676572
-15.110061 -192.12369 -0.16543522
-13.652943 -191.86227 -0.23084494
-28.736439 -190.72252 -0.0827519
-35.060574 -187.85954 -0.28479007
-50.447018 -187.21721 -0.18498163
-41.718964 -187.04028 -0.11115185
-41.600815 -187.05383 -0.1786281
-40.043842 -187.04321 -0.1920615
-28.783524 -186.62991 -0.27358824
-32.257229 -186.30762 -0.11655226
-28.699497 -186.57825 -0.041189842
-20.883554 -185.82719 -0.15598853
-25.051849 -184.88091 -0.22615427
-36.99258 -184.74362 -0.14947741
-31.551781 -184.72443 -0.26302296
-28.838114 -184.75685 -0.16241612
-27.430164 -183.26648 -0.16451326
24.209679 -174.29579 -0.0249677
23.087029 -173.62868 -0.077831663
23.291307 -173.58299 -0.13586044
23.985035 -173.63336 -0.10670723
23.884411 -171.71828 -0.20177092
23.423496 -171.31206 -0.25662535
23.60813 -170.95007 -0.06964279
23.727554 -170.9621 -0.27129018
23.581036 -170.46164 -0.25230527
23.700762 -170.42769 -0.2650148
22.892906 -170.14825 -0.10951349
23.54999 -170.23415 -0.18619666
23.719894 -170.29759 -0.056366317
21.779039 -169.93503 -0.18812492
22.710524 -169.92932 -0.2148339
22.841497 -170.00822 -0.012816746
23.514635 -169.92204 -0.18004414
24.371834 -169.91376 -0.20570341
22.44788 -169.73515 -0.16655995
22.647295 -169.63716 -0.21546628
22.873297 -169.57135 -0.13628145
23.366472 -169.68906 -0.24219525
23.517899 -169.71915 -0.16198529
24.266788 -169.67282 -0.14717765
24.391481 -169.71492 -0.21539341
22.435448 -169.45354 -0.16140962
22.649155 -169.43001 -0.20350118
22.932034 -169.48666 -0.19981632
23.314041 -169.43597 -0.15868062
24.246592 -169.24939 -0.24830078
24.357454 -169.49164 -0.086529866
23.39138 -169.13615 -0.11353322
24.289774 -169.17494 -0.20140859
22.466946 -168.6721 -0.13456658
23.90255 -168.67668 -0.047702633
21.68119 -168.47095 -0.24581566
24.270132 -168.43748 -0.14121839
21.841446 -168.11899 -0.0092979353
21.946676 -168.07359 -0.018839393
21.598288 -167.70515 -0.26303703
21.669914 -167.96687 -0.024079394
24.207163 -167.83768 -0.067550294
22.653296 -166.13168 -0.18395202
30.050209 -133.32121 -0.26844469
29.834871 -133.04387 -0.25372195
15.39932 -52.358089 -0.20712011
23.232281 -52.05579 -0.059365112
14.152938 -51.614597 -0.27018091
14.543861 -51.373356 -0.1273573
15.158118 -51.107449 -0.28544694
22.037144 -49.331497 -0.085047349
22.281668 -49.267311 -0.19021411
22.272577 -49.046162 -0.071666032
22.836126 -48.988369 -0.27994287
21.893814 -48.81041 -0.094733305
22.373009 -48.746613 -0.16781782
22.66869 -48.699131 -0.11741485
22.403027 -48.483185 -0.25881732
22.597075 -48.393154 -0.21719377
22.821665 -48.387474 -0.20363128
23.132233 -48.38987 -0.24328479
22.403221 -48.118637 -0.14302528
22.739723 -48.086521 -0.24369149
22.423569 -47.840847 -0.12834632
22.529692 -47.755138 -0.055503543
23.042406 -47.885609 -0.15700059
22.564777 -47.669476 -0.24523239
15.404214 -46.597065 -0.14468037
23.34165 -46.604115 -0.20207791
23.460571 -46.60339 -0.14635149
23.789303 -46.673805 -0.075209573
24.211075 -46.513809 -0.11325009
14.446241 -46.427174 -0.15708719
14.756857 -46.354584 -0.076248638
22.112389 -46.45369 -0.18392545
23.376907 -46.378471 -0.2315198
23.500593 -46.415821 -0.19038774
23.885101 -46.408546 -0.11026303
24.073132 -46.286144 -0.086629264
24.320141 -46.492413 -0.20036297
13.62421 -45.90403 -0.15324278
14.637628 -46.18536 -0.081688449
23.753904 -46.108791 -0.14912654
24.16312 -46.014786 -0.21934481
13.672331 -45.89093 -0.15681913
14.329689 -45.689266 -0.048384909
14.464338 -45.684345 -0.12894394
14.771775 -45.617794 -0.17139302
15.037394 -45.818958 -0.019154828
21.197906 -45.485264 -0.26699504
29.058273 -43.8438 -0.10398138
21.559462 -42.132286 -0.16217983
21.716293 -42.07711 -0.10088759
22.495264 -41.724277 -0.049596347
22.056271 -41.667355 -0.26369271
22.690285 -41.531597 -0.033221275
22.939173 -41.22509 -0.25123772
22.342304 -40.934479 -0.22810081
21.899755 -40.54195 -0.29001716
21.95723 -40.524921 -0.29258406
22.040897 -39.959213 -0.10089781
22.574753 -39.799778 -0.27999818
14.865413 -38.368565 -0.2868346
14.281428 -37.908092 -0.18307635
14.149091 -37.711296 -0.13348779
14.186522 -37.377796 -0.11398912
13.929462 -36.947086 -0.069804221
14.15922 -37.101387 -0.17569661
14.585363 -36.904884 -0.2479448
20.561413 -35.512459 -0.082398608
20.875015 -35.459793 -0.1085549
20.617319 -35.349598 -0.20994349
20.728851 -35.328621 -0.10447182
20.582451 -34.653984 -0.1200948
21.297363 -34.670841 -0.071997628
-100.08114 -34.060341 -0.028036619
-100.07492 -33.637913 -0.28865567
-99.111916 -33.641464 -0.12710156
12.960036 -33.49147 -0.16615343
-100.49323 -32.71146 -0.13864024
9.5919065 -31.657145 -0.22686298
9.8001547 -31.591852 -0.22650185
9.9952946 -31.774237 -0.24252267
-100.4283 -31.205986 -0.19337729
-100.14738 -31.303984 -0.067709565
-100.02174 -31.047823 -0.12521413
9.2406149 -31.189362 -0.28394118
-88.2211 -30.771519 -0.10619036
-87.807777 -30.611946 -0.09798868
-86.482872 -30.608786 -0.19688405
-86.19445 -30.640871 -0.29810247
-85.92778 -30.765903 -0.26543653
-85.568497 -30.663223 -0.20235534
-85.291237 -30.639795 -0.22314039
22.068268 -30.619787 -0.15579163
-86.978699 -30.462385 -0.22723559
-86.481972 -30.545015 -0.20608811
-86.366661 -30.472679 -0.20014445
-85.972824 -30.464663 -0.27140409
-85.624916 -30.372433 -0.22898088
-85.364189 -30.468393 -0.2250409
9.7726336 -30.431414 -0.23380545
22.094095 -30.594883 -0.052324358
27.504791 -30.311569 -0.23899665
-98.582695 -30.018351 -0.23198821
-87.714699 -30.213606 -0.21485232
-87.46714 -30.122828 -0.23548277
-86.847351 -30.120705 -0.21711968
-86.697998 -30.210672 -0.18725514
-86.249161 -30.098854 -0.20325232
-85.855392 -30.254826 -0.27806908
-85.765419 -30.241886 -0.27613962
21.114639 -30.197857 -0.15030985
-87.68335 -29.897573 -0.20332879
-86.86499 -29.85314 -0.24147426
-86.479881 -29.847054 -0.21858865
-86.264801 -29.817322 -0.23968017
-86.049141 -29.941477 -0.27301565
-85.659203 -29.913103 -0.24175553
-85.318916 -29.871208 -0.23142286
20.927395 -29.716356 -0.038217802
-85.342377 -29.583643 -0.2481436
20.980253 -29.594372 -0.19462214
21.072481 -29.566477 -0.13321343
21.342085 -29.486498 -0.20150939
-85.454231 -29.106997 -0.24401167
20.642723 -29.383575 -0.15794797
21.28301 -29.175304 -0.044975299
20.944927 -28.986546 -0.25450128
20.672281 -28.708939 -0.096363083
20.896385 -27.584423 -0.29487073
22.11062 -27.542799 -0.046330057
-31.630627 -23.838341 -0.20707859
21.431173 -23.435528 -0.21436605
8.9659204 -23.319769 -0.29568067
9.0730429 -22.871326 -0.29883394
22.262222 -22.907 -0.048854977
-28.605822 -22.508909 -0.2447844
21.837873 -22.648909 -0.081639163
21.023735 -22.489145 -0.1109337
20.436043 -21.967968 -0.072866634
21.213116 -21.71463 -0.14157942
20.420446 -21.561003 -0.2291384
20.893536 -21.591558 -0.21005496
-16.854824 -21.155819 -0.17151566
-10.905114 -20.426781 -0.29274312
12.895226 -18.964775 -0.26081464
12.671857 -18.417507 -0.21150441
13.107612 -17.980114 -0.27940249
21.182079 -17.597202 -0.090562865
21.537693 -17.287146 -0.19042581
15.076782 -15.68148 -0.12227573
20.211248 -15.814164 -0.0056405244
21.524279 -15.753715 -0.24965058
14.687687 -14.932247 -0.0906367
14.746537 -14.819842 -0.120895
14.721395 -14.589101 -0.027769694
20.034225 -14.569616 -0.022580992
20.253244 -14.462845 -0.071162693
20.496077 -14.510944 -0.029174816
14.547794 -14.235593 -0.27854094
14.443198 -14.020443 -0.090874158
14.733427 -13.98455 -0.064157687
14.541742 -13.68038 -0.20014758
12.861691 -12.364517 -0.2330543
19.738605 -10.896032 -0.17125601
14.512819 -9.4883156 -0.26854146
-4.0062547 -8.8193521 -0.25364941
15.470846 -6.3336687 -0.16948566
15.211323 -6.0293965 -0.031608108
15.223902 -5.8895307 -0.21910939
15.311646 -5.8671169 -0.25541812
12.274914 -5.3172345 -0.15370445
15.447482 -5.2316446 -0.092797674
26.092344 -3.6273534 -0.24572147
26.23023 -3.6910958 -0.28484499
-11.978231 -2.9957228 -0.031034706
-20.754564 -2.2659743 -0.083947249
-20.692894 -2.2502737 -0.11648851
-68.728615 -211.82684 0.046914227
-68.630325 -211.88301 0.13470316
-68.927322 -211.58398 0.0083353715
-68.875458 -211.04892 0.22410625
-69.039604 -210.0378 0.0021848022
-68.954475 -210.02196 0.0059115817
-15.518329 -193.63747 0.069835968
-14.694285 -193.70531 0.0040694522
-15.47682 -193.09195 0.072614506
-9.4398785 -191.57635 0.095027044
-41.061081 -187.36728 0.23880774
23.680019 -173.95448 0.018208105
24.396458 -173.5806 0.0076134377
23.32464 -171.87437 0.16523443
23.463215 -171.81274 0.12663761
23.829018 -171.67705 0.064084776
22.751951 -170.53384 0.032851927
22.855364 -170.49747 0.023840133
22.841995 -170.12234 0.052057572
23.567419 -170.20689 0.0232295
24.530359 -170.10986 0.29123598
22.762056 -169.93361 0.13422199
22.875591 -169.92197 0.13394922
23.547256 -170.0545 0.078770764
24.273836 -169.99931 0.28987068
24.435932 -170.09183 0.26880434
22.681992 -169.60571 0.13013779
22.86359 -169.60934 0.073096491
23.266104 -169.61879 0.037231408
23.637709 -169.66109 0.12752424
23.898647 -169.53903 0.14322697
22.383209 -169.37767 0.13843358
23.377523 -169.29492 0.20099258
23.461523 -169.34128 0.12122519
23.865437 -169.41701 0.22760111
24.452433 -169.49837 0.10630379
23.3801 -168.93291 0.18285614
23.845558 -168.96509 0.19609454
23.466894 -168.85287 0.010797133
23.774357 -168.75259 0.1956609
24.058798 -168.88451 0.060061745
23.232956 -168.3996 0.13492668
23.751566 -168.49106 0.17312124
24.170139 -168.44395 0.19686478
23.661768 -167.95119 0.12806401
24.086065 -167.92134 0.1665912
21.746635 -166.02917 0.18436813
22.66312 -166.16605 0.08895795
23.254694 -165.718 0.16884619
14.311105 -51.962303 0.15812007
14.481101 -51.908382 0.1759841
21.985741 -49.34967 0.052166313
22.287048 -49.386723 0.25790384
22.336479 -49.006062 0.021881327
22.587971 -49.024662 0.23315421
21.803017 -48.814407 0.12503821
22.367296 -48.654934 0.11306246
22.534353 -48.582237 0.14819178
22.993317 -48.478905 0.28227383
23.114517 -48.4617 0.20415811
23.164734 -48.235992 0.011169204
22.418234 -47.802612 0.03696404
22.545351 -47.896477 0.094334461
15.056435 -47.295017 0.13526776
14.916203 -47.041908 0.24253681
15.385085 -46.632751 0.097615689
23.360905 -46.605026 0.01353144
23.504314 -46.640514 0.059577275
23.753658 -46.596794 0.098135881
15.044506 -46.205162 0.13212539
23.368368 -46.425598 0.094417475
23.557753 -46.340889 0.11613832
23.771896 -46.289608 0.15951996
24.144714 -46.365082 0.098979242
14.413544 -46.117069 0.068684705
15.175594 -46.193306 0.084248066
23.691233 -46.155708 0.2975184
23.81921 -46.119701 0.18421264
24.103216 -46.099983 0.058821462
14.290511 -45.690956 0.0077729914
15.154013 -44.36985 0.25368914
21.645723 -42.316624 0.29063651
21.497669 -41.893078 0.21463147
22.463577 -41.522709 0.079037011
22.619091 -41.619648 0.092807062
14.93585 -38.936142 0.045878649
13.999012 -38.665539 0.22602285
14.238774 -37.84943 0.11214639
14.23351 -37.687981 0.17668279
14.626646 -37.670532 0.11110383
14.250604 -37.324341 0.01581659
13.822227 -37.095089 0.031954356
14.374132 -37.16016 0.29391721
-100.05542 -34.504299 0.17635088
20.78368 -34.302673 0.27286485
21.868965 -34.315945 0.11134917
21.600542 -33.695671 0.098849244
-99.639084 -33.56525 0.060652658
-99.904984 -32.820015 0.24125089
-99.769257 -32.788906 0.26164481
-100.4519 -32.602448 0.092978157
-88.156738 -31.592541 0.089757472
-87.678841 -31.346731 0.043735188
-100.15234 -30.977304 0.070645072
21.100229 -30.563578 0.18822941
20.84293 -30.092304 0.28725657
21.81373 -30.075016 0.14570351
21.17905 -29.813536 0.16466326
21.405178 -29.96702 0.17398165
21.148035 -29.581448 0.2348104
20.90317 -29.110228 0.16326503
20.977602 -28.883364 0.05740013
21.097458 -29.066154 0.041964784
21.615911 -27.86318 0.26956928
20.520464 -23.002377 0.018920043
20.506094 -22.783991 0.056117646
20.824286 -22.664576 0.13345736
20.327177 -22.391266 0.23119573
20.576935 -22.427574 0.25991923
20.62438 -22.00416 0.23489238
20.729864 -22.001305 0.20861387
20.597897 -21.657114 0.26773939
20.776239 -21.711817 0.058322322
21.00395 -21.562622 0.027780533
21.145796 -20.903601 0.19314668
-76.537109 -18.693798 0.12151633
12.435721 -18.393299 0.059036467
12.420165 -18.234444 0.24048847
14.931231 -16.362469 0.10976999
21.856787 -16.449108 0.29420984
19.971264 -15.929708 0.28827322
14.963217 -15.758133 0.16167402
20.009888 -15.700066 0.28360143
19.450413 -15.365099 0.27845526
19.716076 -15.389002 0.2726486
19.79319 -15.194367 0.1979059
20.607492 -15.007461 0.26501042
19.558067 -14.92416 0.26175386
20.291233 -14.787963 0.059204802
20.620958 -14.914261 0.0012390704
19.670795 -14.532903 0.075688675
19.956053 -14.544464 0.10267059
14.753254 -13.688278 0.064430051
-77.493645 -13.046683 0.2335376
12.837123 -12.651564 0.13255887
19.389091 -12.363889 0.12033769
12.391837 -11.799749 0.11202603
14.95938 -8.7617311 0.058624431
12.022128 -6.9797106 0.12806129
11.60169 -6.1357088 0.1080223
14.958311 -6.1865849 0.019946611
15.364676 -6.1392155 0.15436843
11.36279 -5.7626739 0.20448796
15.120695 -5.8573756 0.079399839
15.439985 -5.9826279 0.12253142
15.189458 -5.3236012 0.0037052908
15.626659 -5.1240244 0.10636374
15.571643 -5.0269585 0.28610262
10.945548 -4.6705298 0.17032312
-29.292063 -3.5719974 0.15689933
-16.703588 -2.2572441 0.19784969
-68.534584 -212.37352 0.54990369
-68.564156 -211.98283 0.55730611
-68.859421 -211.14023 0.52177513
-68.943085 -210.85323 0.4432272
-69.684883 -206.15002 0.37609318
-69.565819 -206.13577 0.38061064
-29.134022 -201.73494 0.49196988
-28.359894 -201.55103 0.49273732
-9.6036921 -192.21021 0.34183347
-40.935127 -187.37039 0.30783823
24.545206 -177.95142 0.43500575
24.823137 -177.91768 0.39528847
25.001688 -178.04872 0.42668831
25.254162 -178.02888 0.48682696
24.898617 -177.84512 0.34032053
24.975664 -177.83051 0.39748251
23.871113 -174.08627 0.42921212
23.030132 -173.80476 0.51040167
24.615166 -170.95528 0.33684844
24.2684 -170.61652 0.58368075
24.322315 -170.60318 0.51348579
23.990637 -170.18886 0.58817601
24.122383 -170.14734 0.50505418
22.677876 -169.83456 0.30248025
22.709818 -169.70164 0.55786067
23.63588 -168.65424 0.46895805
23.799635 -168.61081 0.43582958
23.365131 -168.41962 0.55435073
23.572769 -168.53464 0.41800541
23.773966 -168.47034 0.40629345
24.145964 -168.42801 0.38246605
24.430021 -168.52832 0.30474418
23.37644 -168.27037 0.38016307
23.464203 -168.27802 0.51286483
24.092953 -168.21344 0.36575669
24.279543 -167.94485 0.59331816
21.866985 -165.94981 0.50086892
14.579417 -52.003464 0.38497749
14.474469 -51.87252 0.44073659
21.571785 -49.288368 0.56743348
21.8255 -49.29052 0.41221124
22.01626 -49.318645 0.39426479
22.217857 -49.324207 0.44335222
21.824959 -49.131626 0.30564821
22.040901 -49.106468 0.48886555
22.361063 -49.142338 0.40546367
22.54903 -49.032951 0.58725345
21.901283 -48.663349 0.43203261
21.917383 -48.577599 0.5874095
22.368723 -48.398159 0.45360398
22.845665 -48.420441 0.39508545
23.509478 -48.415913 0.41863105
22.633352 -48.227219 0.46297243
23.153196 -48.245369 0.30881044
22.278698 -47.964417 0.38255307
22.978386 -47.772404 0.41495606
22.809841 -47.582169 0.4229694
23.151823 -47.644627 0.42521283
15.032022 -46.959637 0.54026622
14.633581 -46.502266 0.30570331
14.841244 -46.616592 0.49229372
23.460627 -46.359978 0.34099996
23.805265 -46.203445 0.32271457
13.640564 -45.929661 0.55275303
14.643397 -46.079472 0.38205025
14.768809 -46.046268 0.37371016
23.286869 -46.152992 0.5094502
23.645279 -46.090263 0.3796106
23.746113 -46.091667 0.3376171
24.038506 -46.086498 0.38576746
23.969339 -45.898327 0.52056819
13.841331 -45.136513 0.57016677
15.220695 -44.265755 0.47686115
22.196205 -42.58392 0.57846481
22.274513 -42.368114 0.52968007
21.26226 -42.028835 0.30499837
22.193359 -42.242653 0.49410439
22.516108 -42.19503 0.54052031
21.968973 -41.728165 0.43839327
14.015154 -39.369514 0.3749215
14.159817 -38.573833 0.35428199
14.298102 -37.869804 0.3425442
21.850744 -35.015755 0.42775843
21.661041 -34.626328 0.54369164
21.649633 -33.392887 0.46706781
22.060982 -33.133072 0.47155339
21.938456 -31.758541 0.3033587
21.093897 -30.646265 0.59157366
20.810532 -30.103571 0.52720273
21.012438 -30.189371 0.53657401
20.845619 -29.883244 0.40763935
21.009359 -29.498655 0.34972778
20.612171 -29.2374 0.3381176
21.016975 -29.109274 0.36923707
21.026289 -28.701971 0.31051648
21.257336 -28.421829 0.42437649
21.404142 -28.40431 0.49062005
21.055574 -27.692307 0.57647932
20.817442 -23.488029 0.49987084
20.381706 -23.218084 0.41599444
21.041977 -23.111364 0.31687075
20.380608 -22.838535 0.40681827
20.703955 -23.097969 0.38781533
20.247728 -22.596601 0.4010402
20.483923 -22.520935 0.47772735
20.113438 -22.240644 0.54017466
20.793503 -22.078964 0.44487476
20.339394 -21.863562 0.49794292
20.255735 -21.572165 0.33286351
20.518881 -21.550768 0.43242446
19.719398 -21.177223 0.41721377
13.927239 -17.831318 0.54157835
19.966331 -17.621693 0.50361228
12.87311 -16.203196 0.43068945
20.157284 -16.246197 0.3720457
21.914152 -16.385857 0.34605661
19.901302 -15.903693 0.37712964
19.48325 -15.379167 0.39502275
19.946634 -15.315854 0.5503158
20.598423 -15.439903 0.56830376
19.145987 -15.196912 0.56348103
19.441229 -15.274699 0.36561954
19.675863 -14.942304 0.42864043
20.165567 -14.723157 0.44187057
19.433666 -14.455456 0.38219616
20.318842 -14.580043 0.59862542
