# .PCD v0.7 - Point Cloud Data file format
VERSION 0.7
FIELDS x y z
SIZE 4 4 4
TYPE F F F
COUNT 1 1 1
WIDTH 1442
HEIGHT 1
VIEWPOINT 0 0 0 1 0 0 0
POINTS 1442
DATA ascii
-7.6726508 -53.208389 -0.70803738
-6.9267354 -53.224174 -0.66475582
-6.7970347 -53.230671 -0.68743306
-6.4003634 -53.283245 -0.73654342
-3.7544577 -53.258984 -0.65173787
-1.6214433 -53.227673 -0.70807028
-12.252559 -52.925568 -0.61357945
-11.304159 -52.83712 -0.63239312
-9.3793364 -52.989525 -0.76031917
-9.1353283 -53.043045 -0.73879027
-8.8384514 -53.040249 -0.73714215
-8.4912682 -52.953751 -0.65387559
-8.2750511 -52.93832 -0.67143625
-7.9810505 -52.853462 -0.65636361
-7.2242475 -53.012066 -0.71977913
-6.7085209 -52.811192 -0.74466836
-5.8203897 -53.040493 -0.71009409
-5.5601325 -53.022331 -0.72993773
-5.2001066 -52.994587 -0.81211698
-1.3407696 -52.880184 -0.80836523
3.938453 -53.002724 -0.6564852
14.505915 -52.971775 -0.6554063
-12.086152 -52.762688 -0.78734034
-11.941142 -52.68491 -0.71259683
-11.002432 -52.78434 -0.67040098
-10.505742 -52.61507 -0.76124203
-9.9786396 -52.661518 -0.65639353
-9.8807869 -52.632969 -0.69607651
-9.5227346 -52.742901 -0.87124813
-8.7538624 -52.795319 -0.60720605
-8.6595135 -52.773399 -0.63218445
-7.1973057 -52.762352 -0.61688817
-6.5063605 -52.501446 -0.79085094
-5.5786848 -52.798336 -0.68923515
-4.2496634 -52.711315 -0.72543526
-3.9599056 -52.657413 -0.75798213
-3.5664222 -52.679707 -0.69866425
-3.1181695 -52.645832 -0.67041302
-2.7568798 -52.55817 -0.78711033
-12.742723 -52.447639 -0.7140072
-12.014176 -52.333382 -0.74738747
-9.1774807 -52.435654 -0.73486304
-8.7776794 -52.268959 -0.64684355
-8.5899487 -52.21806 -0.60926914
-7.8894262 -52.401093 -0.64987993
-7.5831552 -52.208374 -0.83912724
-7.2607665 -52.474277 -0.87136853
-6.6730518 -52.252556 -0.87783027
-6.4573808 -52.38229 -0.7748732
-6.2251678 -52.368271 -0.76937407
-5.8630762 -52.479256 -0.88565612
-5.6642218 -52.347626 -0.73451984
-4.9575067 -52.400028 -0.73859435
-3.1967418 -52.208607 -0.62404877
-2.0042303 -52.394726 -0.81179631
-0.76294303 -52.484882 -0.64541745
4.025754 -52.278015 -0.89407218
-8.4502649 -51.902748 -0.71312881
-8.3640518 -51.939194 -0.64393443
-7.8503776 -52.174194 -0.68719196
-7.6161447 -52.12627 -0.80012387
-7.4201798 -52.110733 -0.64162999
-6.3950448 -52.158379 -0.77995062
-5.6698551 -51.914948 -0.61476827
-4.2066112 -52.08149 -0.68093532
-3.9771073 -52.089195 -0.65733397
-3.6938694 -51.969597 -0.7532236
-3.4650614 -52.119366 -0.76919967
-3.1564724 -52.097733 -0.67234498
-2.7195106 -52.026218 -0.78226316
-2.6240671 -52.012459 -0.76134896
-1.1024929 -52.064041 -0.82112664
0.78335136 -52.174198 -0.85345882
14.651383 -51.93679 -0.68877548
-12.682593 -51.831867 -0.70186085
-10.017641 -51.716358 -0.84169173
-9.455061 -51.643951 -0.65304101
-8.4426966 -51.644257 -0.64976937
-8.0802889 -51.602684 -0.71058559
-5.0082145 -51.703232 -0.63858575
-4.5455623 -51.685661 -0.81650925
-4.4659591 -51.638016 -0.76100874
-3.5787103 -51.815712 -0.80555022
-3.0910413 -51.616451 -0.83606911
-2.211185 -51.726528 -0.80354947
-1.9760579 -51.632553 -0.81329936
0.70263541 -51.854721 -0.61710042
1.8568621 -51.727684 -0.68568075
2.5941927 -51.765846 -0.79989123
2.8989205 -51.877438 -0.86392957
3.4908128 -51.69244 -0.76848644
8.7605104 -51.845497 -0.73213023
22.87883 -51.69886 -0.66136223
-10.541816 -51.449791 -0.65288329
-8.8651381 -51.301971 -0.79499131
-8.2839785 -51.551804 -0.73578525
-4.6618075 -51.377686 -0.70947057
-4.3420582 -51.48225 -0.70838171
-4.0574255 -51.452873 -0.71501029
-3.7686379 -51.332962 -0.6146785
-3.260011 -51.512276 -0.69567865
-2.8593779 -51.4506 -0.66061521
-2.4869461 -51.463219 -0.71418923
-1.8384998 -51.461212 -0.75909138
-1.7663345 -51.431557 -0.66918653
-1.3316729 -51.357506 -0.75838119
-0.89877862 -51.348499 -0.85775334
0.80293399 -51.508476 -0.86134833
0.94904941 -51.408981 -0.83749151
1.7025359 -51.417248 -0.731929
2.5323613 -51.397488 -0.88997632
6.9903893 -51.300896 -0.8346113
8.2941036 -51.339451 -0.88341618
10.111588 -51.595825 -0.86130142
10.210013 -51.57412 -0.86997598
11.131905 -51.304066 -0.7506392
-7.3928351 -51.256943 -0.642407
-5.817173 -51.01844 -0.7312988
-4.3122373 -51.299633 -0.6977725
-3.9398322 -51.030807 -0.61146396
-3.5558071 -51.161366 -0.81115234
-2.4665422 -51.231869 -0.81882137
-2.1529841 -51.0014 -0.85653836
-1.8125902 -51.088207 -0.6972267
-0.69043702 -51.234726 -0.6989913
-0.25981221 -51.108444 -0.8020609
0.26753333 -51.27639 -0.8862204
0.73039019 -51.268829 -0.85004532
1.7380064 -51.134686 -0.77041638
1.8771591 -51.199272 -0.77931142
3.4517131 -51.015244 -0.8448
3.7415135 -51.147732 -0.71956795
4.4838743 -51.063637 -0.79044312
4.5376205 -51.121468 -0.66546261
7.0907564 -51.280582 -0.84063405
14.474359 -51.09605 -0.79343343
-10.319384 -50.89172 -0.80070794
-7.6736245 -50.89772 -0.74433136
-5.767519 -50.997307 -0.73128211
-5.5604134 -50.96933 -0.79942936
-2.7114077 -50.775597 -0.61100012
-0.40390655 -50.85078 -0.73236382
0.68383616 -50.756905 -0.68778294
1.1019431 -50.952976 -0.82933736
1.7777604 -50.863449 -0.7723614
2.0818417 -50.863773 -0.87992328
2.1392822 -50.852867 -0.833085
3.9320171 -50.765568 -0.86184943
4.3762197 -50.965622 -0.7392258
5.1049776 -50.891479 -0.86637515
7.0487952 -50.830139 -0.88253188
7.5159979 -50.766815 -0.87213904
10.280846 -50.737358 -0.68960035
13.974071 -50.806 -0.83935875
-7.3731136 -50.627579 -0.69561869
-3.9591484 -50.630157 -0.67072076
-3.464999 -50.668472 -0.648678
-2.9479222 -50.697048 -0.73398435
-1.5112873 -50.454826 -0.76253146
-1.360536 -50.549294 -0.81598365
-0.77297413 -50.608078 -0.69487536
-0.45599997 -50.661072 -0.78776646
0.50407809 -50.406734 -0.86638695
1.0287814 -50.591488 -0.61838627
2.6373761 -50.509422 -0.82826781
2.8022566 -50.557648 -0.8607412
3.5171177 -50.626793 -0.7837072
3.9450493 -50.608528 -0.88243026
4.4882317 -50.503197 -0.77538002
4.9641476 -50.469639 -0.82710224
5.9673409 -50.4655 -0.82537103
6.3260379 -50.63755 -0.72130221
6.6753454 -50.661186 -0.87126493
10.385978 -50.466911 -0.75098503
-5.3526063 -50.157574 -0.6084078
-0.69015574 -50.379093 -0.73644376
1.1729536 -50.128761 -0.87780935
2.6414738 -50.23933 -0.88344276
3.8849349 -50.210114 -0.82055444
4.0545459 -50.314404 -0.79307193
4.4803438 -50.237709 -0.86221266
4.5664334 -50.288944 -0.81564522
5.0877309 -50.37286 -0.88702661
8.3833265 -50.238083 -0.78288358
8.8499784 -50.399521 -0.87145621
10.75893 -50.343418 -0.78087443
-3.9981871 -50.076355 -0.72342747
-0.82207751 -49.909313 -0.67814922
0.73888367 -49.867172 -0.83847547
0.91774178 -49.968266 -0.80068713
1.6170173 -50.035995 -0.83917308
2.3399515 -49.868927 -0.79110503
2.4651477 -49.849163 -0.75846881
3.349946 -49.895973 -0.80934739
4.023859 -49.841022 -0.76409078
4.6002235 -49.978992 -0.78121996
4.8468218 -50.0159 -0.77451527
5.430181 -49.82716 -0.86543858
6.7551131 -50.070988 -0.71368408
7.1508861 -49.868019 -0.71601778
8.466938 -49.892124 -0.85400915
11.314614 -50.073837 -0.7754516
-0.84505278 -49.749496 -0.80980802
0.57335621 -49.671814 -0.86497068
0.68670249 -49.637142 -0.84595716
2.6490271 -49.649536 -0.840698
2.8439548 -49.62653 -0.74888086
3.3322477 -49.588627 -0.85212386
5.0612679 -49.731968 -0.89322311
5.2044239 -49.768505 -0.88094717
5.6617613 -49.749798 -0.74064219
5.7536302 -49.52652 -0.73992002
6.0400915 -49.503048 -0.67827797
6.7900949 -49.756706 -0.82919216
6.968452 -49.775833 -0.74321514
7.3667035 -49.620903 -0.7794674
7.7629142 -49.6395 -0.82337046
7.8264933 -49.61108 -0.84110707
8.196106 -49.519062 -0.66676897
8.7333403 -49.552677 -0.78768253
9.0903578 -49.695675 -0.69633752
9.6210623 -49.72477 -0.80790037
10.192295 -49.543133 -0.6647476
10.251855 -49.620342 -0.63579404
10.575373 -49.640736 -0.84287041
11.050992 -49.627167 -0.75812817
11.222047 -49.680965 -0.74866933
1.4876761 -49.247215 -0.66758114
2.5457239 -49.252697 -0.74546027
5.2421145 -49.445236 -0.77351999
7.0813327 -49.367107 -0.76271874
8.2893696 -49.409927 -0.89007872
10.50333 -49.368004 -0.75432646
11.000126 -49.353729 -0.86860496
13.78145 -49.448555 -0.76890856
13.820499 -49.301601 -0.81212002
21.930483 -49.312859 -0.63148046
22.660694 -49.204197 -0.71166217
1.0774772 -49.153309 -0.83865809
1.4060701 -49.127174 -0.85336804
1.7850318 -49.033348 -0.83219564
1.8224522 -49.001255 -0.63459235
4.7818575 -49.055016 -0.66396022
5.0080233 -49.087467 -0.8798185
7.1072693 -49.183914 -0.78466642
8.0982208 -48.913673 -0.88455874
9.2785263 -49.159718 -0.87401462
10.092829 -49.026337 -0.80538017
10.629152 -49.009087 -0.64012408
21.834017 -49.083496 -0.84355855
22.041597 -48.93602 -0.81008571
22.257301 -49.012756 -0.78847277
22.615227 -49.081207 -0.66800427
1.7265605 -48.647194 -0.69459474
1.828269 -48.615269 -0.70442444
3.6799145 -48.801018 -0.87291729
3.913981 -48.784126 -0.87987512
5.0369349 -48.620064 -0.83144331
7.0308852 -48.615383 -0.88415521
9.2612438 -48.727287 -0.89448124
9.5946989 -48.603035 -0.89303488
9.8376989 -48.880989 -0.76403099
10.394351 -48.793812 -0.77587587
10.652063 -48.701096 -0.69652992
10.989034 -48.685123 -0.70183522
22.076527 -48.694084 -0.75837564
22.330473 -48.698185 -0.74068093
22.623814 -48.726826 -0.69132543
22.995659 -48.677841 -0.74758834
6.6983294 -48.469246 -0.83208787
10.013152 -48.454464 -0.89786077
10.405001 -48.377502 -0.76607931
10.870701 -48.555214 -0.83188188
11.277633 -48.549236 -0.7107321
13.625413 -48.542461 -0.86955297
22.307922 -48.5317 -0.70259684
23.105848 -48.426857 -0.82436985
28.988205 -48.311939 -0.75715429
6.9889698 -48.09026 -0.83055538
10.398181 -48.107452 -0.82890362
10.543565 -48.071407 -0.82937241
11.051763 -48.155937 -0.60611337
11.254826 -48.162643 -0.68842447
15.68669 -48.037292 -0.74000072
22.410976 -48.288589 -0.70191622
22.684277 -48.092083 -0.7059083
22.922327 -48.080006 -0.85671574
23.173012 -48.029987 -0.62245077
5.1467714 -47.726059 -0.86734098
6.4969978 -47.912472 -0.73168707
6.8064919 -47.872681 -0.84439731
7.1898112 -47.721924 -0.80357623
7.4661107 -47.865044 -0.89915645
10.4367 -47.759449 -0.89965373
10.667834 -47.86491 -0.79226023
10.984622 -47.805893 -0.77103966
11.269242 -47.790497 -0.75350326
11.458145 -47.759663 -0.76469183
11.710149 -47.789875 -0.866395
15.338691 -47.703403 -0.85952663
22.566265 -47.918594 -0.71694005
22.816921 -47.921967 -0.62029898
28.695679 -47.756184 -0.72292757
3.7793586 -47.691833 -0.68077338
7.005228 -47.63118 -0.7686522
10.696161 -47.544136 -0.70419562
10.87932 -47.516228 -0.66736472
11.231346 -47.614693 -0.7989285
11.545918 -47.58614 -0.86813164
27.796722 -47.470299 -0.68059444
7.0963469 -47.197792 -0.71491122
7.3965569 -47.257236 -0.68337798
10.4757 -47.236736 -0.77723771
10.641452 -47.263668 -0.71823752
11.041107 -47.191833 -0.69229233
11.20963 -47.188721 -0.76288939
11.510908 -47.292465 -0.77807939
11.859479 -47.24065 -0.71797353
15.208171 -47.130749 -0.89717031
10.584714 -46.943539 -0.78841311
11.067584 -46.914268 -0.65672785
11.857126 -47.02668 -0.81017375
13.439196 -47.021923 -0.88698077
15.646901 -46.977001 -0.70042133
27.890333 -46.881077 -0.78641099
29.305922 -47.032501 -0.89198226
29.518414 -46.897243 -0.77904451
5.7865553 -46.702824 -0.88567781
7.4274268 -46.531624 -0.81320542
8.6705189 -46.512146 -0.88821423
10.034576 -46.796814 -0.8855713
10.972784 -46.78804 -0.738765
11.266204 -46.645439 -0.86463875
11.403924 -46.720158 -0.89346284
14.321445 -46.541046 -0.84288257
27.986725 -46.687298 -0.83734816
28.292368 -46.735271 -0.87107259
28.596096 -46.699348 -0.70305592
29.217386 -46.656963 -0.78703547
29.510593 -46.724613 -0.78931367
10.979223 -46.363228 -0.80404288
11.285535 -46.449516 -0.62734401
14.16672 -46.260555 -0.71827286
22.148373 -46.325108 -0.6811533
23.407099 -46.419308 -0.61356997
23.745764 -46.35733 -0.67115748
28.608627 -46.301716 -0.83357573
28.959995 -46.426086 -0.85250616
29.26753 -46.337738 -0.81605506
29.478012 -46.353333 -0.74844253
10.297588 -45.919601 -0.78823519
11.024983 -46.100636 -0.88530421
14.659527 -46.00222 -0.72003829
28.665756 -45.929504 -0.80782396
28.946587 -46.072693 -0.82440597
29.165323 -46.169342 -0.87725878
34.889824 -45.914597 -0.89331174
10.643949 -45.790848 -0.74965751
10.97711 -45.654625 -0.82240301
11.199702 -45.871109 -0.75980186
14.520301 -45.745766 -0.75934738
14.763453 -45.888885 -0.82728839
28.48814 -45.672741 -0.87962091
28.618637 -45.842819 -0.75967777
28.950525 -45.805588 -0.8371188
8.1456356 -45.403996 -0.88286221
13.829705 -45.469574 -0.75578898
28.679815 -45.452255 -0.8941763
28.915565 -45.450527 -0.88180417
29.199848 -45.350266 -0.7378912
10.057558 -45.036545 -0.62718648
14.24625 -45.179024 -0.71139175
27.331573 -45.018993 -0.89573997
28.669485 -45.208817 -0.7846759
28.972744 -45.119442 -0.71976906
29.11557 -45.16592 -0.69989812
29.418699 -45.103191 -0.7310937
34.379604 -45.181671 -0.88970709
-42.434471 -44.842957 -0.68519384
-11.067204 -44.929165 -0.71663868
28.755411 -44.868851 -0.84682119
28.940197 -44.886497 -0.76990271
29.199598 -44.830727 -0.79944777
35.80899 -44.963558 -0.76349676
28.604187 -44.637741 -0.73095626
29.186096 -44.40955 -0.76815647
37.671276 -44.444008 -0.89830041
-5.0848765 -44.18066 -0.78356034
-4.3700833 -44.250587 -0.75141901
10.161643 -44.124825 -0.76918882
28.147879 -44.2094 -0.84245485
29.307852 -44.163193 -0.81097585
-42.555046 -43.98698 -0.65105236
28.527521 -44.069752 -0.85660088
28.949638 -43.9412 -0.8407284
29.331202 -44.004715 -0.82547528
10.990934 -43.638371 -0.68557692
28.794912 -43.752033 -0.72730201
28.996208 -43.576038 -0.73802388
2.612772 -42.32592 -0.84349364
4.3618021 -42.483116 -0.86927259
21.801085 -42.58506 -0.87964582
21.981258 -42.318363 -0.75208598
-14.012527 -42.186985 -0.86911231
2.7907271 -42.294453 -0.8754456
22.120632 -42.159363 -0.79369879
1.7431669 -41.92252 -0.87786716
9.9531364 -41.909805 -0.86598206
21.609194 -41.920372 -0.71934485
9.7848587 -41.520195 -0.74332821
9.9338131 -41.459766 -0.723988
10.292786 -41.687336 -0.69853115
22.682117 -41.120445 -0.65216535
-14.746188 -41.042088 -0.85873288
-8.0929613 -40.858753 -0.86709583
5.8692093 -41.053902 -0.86260396
9.6989527 -40.879021 -0.89446181
28.039938 -41.02076 -0.82286298
-16.36731 -40.518887 -0.77946496
-14.49529 -40.557053 -0.65789366
8.0368185 -40.705654 -0.89591265
21.82299 -40.686283 -0.61163324
-15.155431 -40.409702 -0.81117034
6.20329 -40.326252 -0.89677668
7.1403422 -40.294163 -0.83023089
9.3699951 -40.350967 -0.67404062
9.8275385 -40.460316 -0.86967862
10.092828 -40.250389 -0.75925851
10.660447 -40.288971 -0.78435016
10.844709 -40.394428 -0.76417404
21.873951 -40.298904 -0.74891418
28.769127 -40.490696 -0.66402197
-16.120049 -40.097305 -0.84587878
-15.399977 -40.011253 -0.70539969
6.2371016 -40.18655 -0.85660332
9.5022783 -40.001213 -0.75966728
9.7637796 -40.028267 -0.80309981
9.9174137 -39.950325 -0.83784974
10.38631 -40.168797 -0.82664126
10.578834 -40.135216 -0.66408193
-130.33293 -39.864468 -0.84321624
-15.863198 -39.628956 -0.882438
6.91781 -39.742455 -0.75833213
10.678738 -39.706356 -0.68459153
27.207949 -39.669769 -0.74347758
27.408083 -39.735077 -0.8292976
-15.44675 -39.49419 -0.80370224
9.8399658 -39.364929 -0.72025996
9.9548702 -39.381454 -0.78179371
10.355811 -39.403301 -0.75500554
10.601815 -39.418194 -0.66757363
9.8334608 -39.155354 -0.79093629
10.746028 -39.229393 -0.77739841
10.93012 -39.224178 -0.69827747
27.098812 -39.262104 -0.74196345
27.68652 -39.16906 -0.76571351
-16.422884 -38.952541 -0.65933603
-16.039177 -38.903244 -0.84251016
-15.807546 -38.97311 -0.77608216
27.333836 -38.997997 -0.83138967
27.758184 -38.936802 -0.60289574
-16.201113 -38.536823 -0.75127339
14.542954 -38.56472 -0.6052711
-16.395643 -38.111347 -0.67039847
-15.954394 -38.328568 -0.62864572
-15.726836 -38.13435 -0.86122084
26.831717 -38.246841 -0.80315447
27.120056 -38.233955 -0.83748841
-16.040253 -37.865932 -0.79935408
-15.75946 -37.908333 -0.71757692
26.594217 -38.06406 -0.67422628
27.10544 -38.052216 -0.69247335
15.092803 -37.609779 -0.64349449
27.160721 -37.786774 -0.68734908
-16.096294 -37.236206 -0.64975333
10.24711 -37.398235 -0.81953245
27.39221 -37.210754 -0.70790905
28.423891 -37.202953 -0.74405164
-110.05825 -37.139275 -0.62147313
-6.2444534 -37.175373 -0.63820952
-3.9474106 -37.072601 -0.67273337
-1.9861908 -37.127308 -0.68134826
9.7437277 -37.0569 -0.75030929
9.9681492 -36.997532 -0.80761272
14.142154 -37.009899 -0.74185461
26.625021 -37.05225 -0.70002586
28.052523 -37.052528 -0.67502093
28.624563 -36.980774 -0.75411665
-110.23971 -36.6157 -0.72212374
-18.422234 -36.859409 -0.61330229
-4.328239 -36.694382 -0.64214283
-1.6201689 -36.856468 -0.72073978
27.204046 -36.786179 -0.85421938
27.713009 -36.821609 -0.72216922
-114.43967 -36.504833 -0.69575393
-114.13282 -36.421566 -0.69419813
-16.220308 -36.37104 -0.70964879
-3.9747579 -36.460121 -0.72019321
-2.7134202 -36.367996 -0.71911132
-1.9992218 -36.335625 -0.7122888
-1.2961222 -36.437672 -0.77207941
-1.0470588 -36.387779 -0.79147971
0.41559878 -36.415581 -0.63311905
1.6330605 -36.467609 -0.88827789
27.197987 -36.484226 -0.84488577
27.349194 -36.408936 -0.83425009
27.935177 -36.521358 -0.73358083
-5.6164045 -36.158413 -0.69489777
-3.2555056 -36.062012 -0.72994155
-1.9547651 -36.29594 -0.70400608
-1.0505697 -36.160191 -0.77373189
1.3306078 -36.038776 -0.77712935
1.6621554 -36.175476 -0.84023738
2.363014 -36.098087 -0.87968886
2.4037755 -36.078083 -0.86440617
21.136353 -36.204391 -0.84884983
-111.3328 -35.886074 -0.77904004
-111.22103 -35.887512 -0.81272745
-110.41838 -35.821949 -0.77642494
-5.6288385 -35.798233 -0.72814983
-3.6462874 -35.873116 -0.74582708
-1.6597506 -35.746231 -0.78265351
-1.2772532 -35.952415 -0.77833724
1.5491208 -35.89225 -0.83373392
2.2640004 -35.754028 -0.80083495
2.5293641 -35.738739 -0.88392878
9.0825195 -35.960846 -0.76790494
9.3418188 -35.897202 -0.67896616
10.295769 -35.736008 -0.8088609
-110.12664 -35.517525 -0.69354069
-6.496419 -35.406803 -0.65994275
-6.2218881 -35.538467 -0.65467596
-4.8464303 -35.449905 -0.62115794
-4.5740252 -35.420662 -0.71840495
-4.3056297 -35.519096 -0.77140355
-1.1499251 -35.516449 -0.81307971
-0.034303151 -35.478638 -0.85107279
0.075034015 -35.526283 -0.75942242
0.39386982 -35.492577 -0.77498829
1.9359984 -35.642509 -0.75358742
2.7966428 -35.64621 -0.82611763
9.4938917 -35.51083 -0.77493149
10.068788 -35.401756 -0.78499323
10.23085 -35.603809 -0.75720263
-110.72574 -35.27692 -0.75044209
-110.64745 -35.106125 -0.63168669
-110.26935 -35.24527 -0.68649173
-5.4965854 -35.296597 -0.66507816
-4.5295429 -35.359867 -0.71347803
-4.3784041 -35.270573 -0.68833727
-4.0687194 -35.314503 -0.7531932
-3.3678715 -35.223164 -0.80134779
-2.4499378 -35.126892 -0.75227869
-2.2174311 -35.322258 -0.73010242
-1.4613261 -35.126606 -0.82443756
-1.0528924 -35.330605 -0.84896547
-0.56402564 -35.19548 -0.67267746
0.3506873 -35.166336 -0.83526009
0.86515099 -35.311657 -0.80976254
1.3856138 -35.298191 -0.71764958
1.6009235 -35.205204 -0.80749029
1.8840113 -35.132931 -0.82637024
2.3657072 -35.175655 -0.80756688
2.5247271 -35.215137 -0.77803975
5.1211109 -35.316563 -0.87136579
9.1261082 -35.284332 -0.80502093
10.345157 -35.341953 -0.76950788
27.675446 -35.341236 -0.6720233
28.164824 -35.32732 -0.79585427
28.300848 -35.291672 -0.77483958
-110.62608 -35.092812 -0.68879384
-110.03168 -34.937027 -0.74415845
-4.0082226 -34.906784 -0.80630398
-2.0123098 -35.041111 -0.84965271
-0.93169177 -34.980408 -0.78029108
-0.866135 -34.973213 -0.70753562
0.051979519 -35.062393 -0.825441
1.5643615 -34.867359 -0.81824011
1.9048043 -34.894463 -0.8378486
2.1745441 -34.844597 -0.81045747
2.4901917 -34.861015 -0.70961368
10.577212 -34.91502 -0.63285398
28.107315 -35.046326 -0.8529129
-3.4354455 -34.630005 -0.74645472
-3.2988789 -34.593296 -0.84637046
-1.8873543 -34.618584 -0.80975336
-0.61031181 -34.746136 -0.79374188
-0.48798364 -34.524685 -0.84759247
0.84389514 -34.658886 -0.84286153
1.0898174 -34.524136 -0.78461111
1.717948 -34.754494 -0.83037359
1.968925 -34.690933 -0.84663951
2.8965523 -34.614582 -0.8437264
3.1752713 -34.781876 -0.87750989
3.4117765 -34.794685 -0.87634683
8.6055784 -34.74202 -0.8802712
10.465202 -34.593388 -0.80881858
35.639656 -34.554279 -0.71930933
-5.6645908 -34.460411 -0.63992888
-2.6519465 -34.219349 -0.68634057
-1.5623345 -34.37962 -0.78297329
-1.4367498 -34.325809 -0.80308795
-1.1149151 -34.362728 -0.8304885
-0.36802638 -34.383892 -0.82483637
0.14278369 -34.399361 -0.88592857
0.38655838 -34.290413 -0.78101486
0.73394132 -34.271194 -0.79177809
1.0669897 -34.379974 -0.81914246
1.2806418 -34.325237 -0.75907779
2.0526586 -34.28722 -0.80647534
2.2809584 -34.26712 -0.82113308
2.4168615 -34.254921 -0.81656677
6.2463779 -34.225388 -0.89502251
9.4115658 -34.325417 -0.65729606
9.7417278 -34.283924 -0.74748254
10.275759 -34.27739 -0.7868163
35.666695 -34.389763 -0.88312346
-4.4390059 -34.055309 -0.79140538
-3.5394974 -34.023525 -0.7718271
-1.2399659 -33.950779 -0.88130528
0.28203538 -34.013012 -0.76547295
0.55502462 -33.987877 -0.74180233
0.62410045 -33.971672 -0.78464758
1.0528411 -34.082962 -0.8214553
1.3682183 -34.092003 -0.83214211
1.6914873 -33.996605 -0.8406229
2.0167873 -34.028061 -0.87167275
2.2302763 -34.037506 -0.870525
3.5455384 -33.946865 -0.82229394
3.6214573 -33.929825 -0.81341761
5.3096418 -33.937351 -0.87783223
9.407733 -34.105919 -0.78913152
10.261058 -34.04578 -0.83964819
-109.12251 -33.65321 -0.81421143
-4.2310758 -33.827347 -0.72068822
-4.0487313 -33.720589 -0.63035011
-2.8959758 -33.719055 -0.87307024
-1.2349201 -33.875378 -0.65230495
-0.3824468 -33.892937 -0.66963756
0.27006057 -33.797794 -0.76641113
0.39511508 -33.775768 -0.86624122
0.86431926 -33.729855 -0.89918554
1.3579369 -33.851585 -0.87892205
2.266732 -33.657967 -0.79024076
2.5313177 -33.703197 -0.79837829
2.8766737 -33.749466 -0.77903557
4.3080087 -33.871086 -0.87279075
8.6853094 -33.678917 -0.75529027
9.5478745 -33.615067 -0.84736061
9.9020157 -33.717373 -0.63191634
10.511208 -33.874649 -0.68963373
-110.37603 -33.499943 -0.84908199
-109.84637 -33.350025 -0.85335332
-109.64182 -33.395828 -0.77750635
-109.38098 -33.346069 -0.86544782
-4.6601901 -33.324642 -0.80884749
-3.7696948 -33.311188 -0.83462256
-3.4298594 -33.324196 -0.89967453
-1.2095443 -33.519947 -0.83291793
-0.62722665 -33.570995 -0.82818496
-0.59980595 -33.577133 -0.80922532
-0.11560676 -33.34248 -0.88604265
0.50014699 -33.480415 -0.84063452
1.7096903 -33.406498 -0.73460668
2.5393813 -33.53133 -0.82683915
2.9484489 -33.558552 -0.86882275
9.6374168 -33.568813 -0.77154094
9.9712353 -33.510311 -0.70692933
10.877161 -33.447701 -0.76830161
-99.62146 -33.27734 -0.61910111
-99.442078 -33.153076 -0.80239224
-98.878876 -33.071236 -0.66981149
-98.45433 -33.123085 -0.66791368
-4.5531845 -33.292122 -0.75872791
-3.4476626 -33.23172 -0.79795462
-0.84356689 -33.20644 -0.663113
-0.51127857 -33.258083 -0.84825599
2.9293218 -33.035065 -0.63360202
10.123646 -33.081238 -0.64174938
10.226952 -33.088623 -0.66025627
10.869057 -33.167671 -0.81282365
-99.610283 -32.92981 -0.60431391
-99.323273 -32.804916 -0.7228955
-99.296181 -32.821617 -0.80492634
-98.400322 -32.881359 -0.63140762
-98.232895 -32.838333 -0.70523107
-1.0747759 -32.781181 -0.77009207
-0.7209304 -32.832291 -0.77505529
2.7963054 -32.902416 -0.69893855
9.0587034 -32.816883 -0.88070363
9.393671 -32.805305 -0.76787579
10.953733 -32.799267 -0.8219794
-100.35535 -32.611897 -0.73221487
-99.780174 -32.566967 -0.62968934
-99.042694 -32.608837 -0.72725707
-98.914948 -32.598732 -0.69405872
-98.652252 -32.594414 -0.70509905
-98.161865 -32.556499 -0.79377204
-1.7139909 -32.551998 -0.67465341
1.8203423 -32.441132 -0.86060244
8.818531 -32.480988 -0.82675648
9.1412764 -32.586792 -0.88954496
9.7723351 -32.611622 -0.67002696
9.9141808 -32.549007 -0.80638617
10.416692 -32.653332 -0.83857548
10.707437 -32.645016 -0.74680567
-111.49043 -32.206532 -0.81557375
-106.75533 -32.358868 -0.87972581
-100.34137 -32.312935 -0.73896408
-99.74054 -32.191948 -0.75893724
-99.131653 -32.210163 -0.79165006
-98.914467 -32.338612 -0.76282173
-98.5616 -32.320038 -0.79743141
-98.342285 -32.236679 -0.83391446
2.2875531 -32.341343 -0.8920908
6.645752 -32.212532 -0.8463304
9.1321106 -32.148849 -0.74534535
9.5748692 -32.124107 -0.88824147
9.7136993 -32.274704 -0.753501
9.9315081 -32.393173 -0.64133859
10.291022 -32.150921 -0.68418467
-110.64448 -31.984333 -0.80017936
-99.465759 -31.947462 -0.84796721
-99.04023 -31.954048 -0.65763783
-98.890549 -32.0084 -0.70556188
-98.576073 -31.995073 -0.67488676
-98.236954 -32.001362 -0.69438416
7.0503297 -31.979519 -0.89455181
8.7798843 -31.992817 -0.86551821
9.1341467 -32.03083 -0.6854527
9.4604216 -32.071144 -0.70731759
9.7385845 -32.067638 -0.77314329
10.364347 -31.856686 -0.73818982
28.015541 -32.011253 -0.84135884
-99.470474 -31.691721 -0.70254707
-98.929138 -31.529367 -0.68085784
-98.443726 -31.608728 -0.65195692
-98.378464 -31.676624 -0.70877397
1.3657732 -31.531057 -0.84473073
1.7877433 -31.54377 -0.70022714
4.0757008 -31.679195 -0.85593057
8.6179495 -31.555872 -0.63227093
8.919261 -31.611767 -0.70711803
9.3793821 -31.583067 -0.71746868
9.7326698 -31.70496 -0.64402574
10.053445 -31.63266 -0.64618623
10.277176 -31.729111 -0.87182695
27.05607 -31.77648 -0.85955656
-112.58626 -31.294645 -0.69216567
-99.334381 -31.497208 -0.65616578
-98.257774 -31.329594 -0.73499376
-97.549232 -31.209948 -0.60079432
1.3063207 -31.483358 -0.87026465
8.9203606 -31.287878 -0.68672323
9.0959167 -31.249578 -0.69231081
9.4970303 -31.444962 -0.70359528
9.7085819 -31.367771 -0.75542915
10.014568 -31.400316 -0.70190531
10.306953 -31.29472 -0.79082751
21.741905 -31.354586 -0.68915945
27.555779 -31.253719 -0.83935988
-111.53641 -30.979351 -0.85079885
-99.076088 -30.938002 -0.70295322
-98.543373 -31.161791 -0.79854155
-98.252869 -31.142532 -0.76322299
8.6038504 -30.996262 -0.81543046
8.855175 -30.980028 -0.71698308
9.0236549 -31.196623 -0.72643173
-100.13654 -30.7078 -0.62196636
-98.567894 -30.728159 -0.74242651
-98.259674 -30.704638 -0.84865773
-97.591492 -30.678989 -0.68141377
-97.348511 -30.730354 -0.74681187
8.8799992 -30.777138 -0.77713412
9.3247681 -30.683613 -0.71994114
27.500849 -30.67996 -0.75945938
27.693806 -30.61924 -0.6775198
-98.609581 -30.353149 -0.77760583
-98.256378 -30.421677 -0.89573419
-97.935043 -30.415663 -0.79572874
-97.580513 -30.43078 -0.74430668
-97.420952 -30.490866 -0.72805238
4.14189 -30.379227 -0.86265606
9.4667501 -30.477482 -0.69163859
9.8161983 -30.487505 -0.72459638
10.188224 -30.416653 -0.7158969
10.395422 -30.461048 -0.78336066
10.59209 -30.351376 -0.84280574
27.494913 -30.499466 -0.67013389
-98.548492 -30.145002 -0.74663562
-98.306885 -30.058136 -0.81132883
-97.927505 -30.135212 -0.72588986
-97.693954 -30.175333 -0.72922385
-97.275002 -30.201012 -0.69530648
-85.894989 -30.105104 -0.62057042
9.7773371 -30.138567 -0.72920495
10.424421 -30.264149 -0.70209789
21.708336 -30.171309 -0.74658865
27.784521 -30.090973 -0.73973453
-98.612045 -29.908367 -0.77286303
-97.826393 -29.962021 -0.68746853
-97.057579 -29.774748 -0.60802114
-87.355995 -29.866716 -0.66912431
-85.919968 -29.729139 -0.66430831
8.6886482 -29.920408 -0.644113
8.8160362 -29.936693 -0.71365958
9.5327568 -29.822758 -0.68930334
9.8539333 -29.900879 -0.7305212
10.006135 -29.907187 -0.74778795
27.727381 -29.822554 -0.67761952
-98.726105 -29.464487 -0.64581501
-98.580231 -29.54509 -0.88565791
-98.205803 -29.554026 -0.7354942
-97.942001 -29.565702 -0.7372061
-97.65448 -29.478914 -0.68157023
-97.423615 -29.604618 -0.77047521
-97.153801 -29.505438 -0.72725582
-96.847366 -29.435301 -0.62327778
9.4285746 -29.622156 -0.69313407
9.9095106 -29.56093 -0.70211625
10.380318 -29.621628 -0.78611881
10.597808 -29.426962 -0.6340282
10.930649 -29.539625 -0.85932678
21.73955 -29.517891 -0.75491989
22.059002 -29.687624 -0.83373553
-98.516655 -29.174593 -0.72289425
-98.213264 -29.296122 -0.72151059
-98.00708 -29.220541 -0.76794505
-97.534065 -29.120264 -0.70620632
-97.323784 -29.31539 -0.74128199
-97.057655 -29.274963 -0.78874749
9.2830715 -29.103928 -0.71521884
9.8097296 -29.242039 -0.62135869
10.320572 -29.38493 -0.79200494
10.986898 -29.393421 -0.85682696
26.493938 -29.119865 -0.8785525
27.516748 -29.26049 -0.86304295
-97.572861 -28.970919 -0.80696869
-97.327286 -28.902113 -0.74885416
-97.083588 -29.006004 -0.83285236
8.3962002 -28.888241 -0.84738326
9.1554785 -29.03199 -0.76892757
9.5258541 -28.989559 -0.72149169
9.6876459 -28.984327 -0.67198491
-97.870491 -28.523947 -0.72931087
-97.594757 -28.621521 -0.73575068
-97.302795 -28.716309 -0.8294642
10.453223 -28.567169 -0.88524735
21.464911 -28.768394 -0.73987961
-98.195869 -28.289461 -0.71797931
8.93361 -28.282799 -0.71471101
9.5496025 -28.268599 -0.71740139
10.35922 -28.21456 -0.75965714
-98.248772 -27.976704 -0.71178401
-97.155296 -27.973455 -0.78666455
9.0976686 -28.036564 -0.71362966
9.3814507 -28.095516 -0.71838582
9.8899899 -27.905054 -0.84521216
9.9125748 -27.91927 -0.8344208
-97.462212 -27.674036 -0.71344471
9.4351292 -27.75046 -0.69741154
9.8797283 -27.788401 -0.84259045
9.9209156 -27.879938 -0.86111438
26.184708 -27.768345 -0.89980865
27.571468 -27.623503 -0.73650938
8.4037895 -27.557877 -0.84733599
9.7996521 -27.372494 -0.84769702
-30.585175 -27.192348 -0.60325491
8.8394384 -27.053581 -0.70794964
26.856363 -27.076012 -0.7569797
-32.449345 -26.857756 -0.61206323
9.2510509 -26.805555 -0.6657964
26.914736 -26.930389 -0.79482317
-32.880352 -26.649641 -0.64648604
9.0567484 -26.418545 -0.6851182
26.984613 -26.5926 -0.71474952
27.210217 -26.643175 -0.80326039
-0.70543826 -26.286158 -0.76563859
9.2448006 -26.293268 -0.67796856
26.635689 -26.225912 -0.84420347
26.950695 -26.124998 -0.74356657
27.106215 -26.206776 -0.88309103
-101.45678 -25.986197 -0.78396511
-101.35833 -25.951653 -0.77320975
-101.05589 -25.847795 -0.79976821
-33.17466 -25.951931 -0.62235123
-31.071096 -25.838942 -0.61869007
-29.495775 -25.875816 -0.61546719
-28.361094 -25.908527 -0.70885623
9.7907362 -26.040195 -0.66663289
10.172508 -25.857077 -0.80762279
26.908325 -26.028036 -0.72405618
27.113922 -25.890509 -0.79529881
27.376125 -25.855848 -0.76129103
27.713949 -25.932144 -0.75626433
28.077101 -25.912682 -0.79667705
-101.73927 -25.759895 -0.61499882
-32.871174 -25.620651 -0.61049736
-31.975254 -25.599476 -0.71504086
-30.960497 -25.579866 -0.69477481
-29.159359 -25.686504 -0.67918319
-29.033545 -25.592413 -0.70996463
-27.469477 -25.620455 -0.72553658
-17.911018 -25.521273 -0.64344263
0.12756343 -25.708204 -0.83568573
10.114833 -25.501801 -0.71587151
26.968031 -25.778885 -0.79285222
27.203974 -25.732868 -0.78062254
27.43716 -25.676929 -0.75317466
-32.922386 -25.313614 -0.70681441
-31.272387 -25.234463 -0.63248342
-31.178242 -25.208147 -0.6561262
-29.895071 -25.452192 -0.63910991
-28.448418 -25.356539 -0.69059014
-27.748932 -25.280813 -0.73671776
-27.430813 -25.417513 -0.70637071
-27.271202 -25.404009 -0.69047713
1.1295118 -25.212042 -0.84630072
9.1881781 -25.438238 -0.69686425
10.149696 -25.212503 -0.8072868
10.235096 -25.256397 -0.76965755
27.05348 -25.25288 -0.85890287
27.453241 -25.413088 -0.74780017
-34.830856 -25.07337 -0.60425591
-33.611244 -25.061239 -0.60571736
-33.348206 -24.925814 -0.65068752
-33.182507 -25.144238 -0.69246048
-32.500111 -25.101936 -0.64347416
-32.289795 -25.076077 -0.66004503
-31.385754 -24.964914 -0.63039255
-31.04583 -24.984047 -0.65926301
-30.393198 -24.916166 -0.62108988
-28.608715 -25.072723 -0.74992234
-28.141626 -24.912714 -0.61462009
-0.76943594 -25.134253 -0.75305086
7.9242015 -24.985983 -0.82379436
9.2042484 -24.904474 -0.61979115
10.10366 -25.072266 -0.77305317
10.240294 -25.107693 -0.73077655
27.186268 -25.044714 -0.88381028
27.482124 -25.061356 -0.80550367
27.9168 -24.983589 -0.6003477
-32.401756 -24.623234 -0.61583394
-31.921528 -24.783558 -0.71089697
-31.193569 -24.616821 -0.64174891
-30.747482 -24.729824 -0.63412899
-30.019255 -24.891237 -0.64440471
-28.648491 -24.828445 -0.74953097
-27.595995 -24.779043 -0.63166463
3.1995008 -24.709246 -0.87866741
7.6731019 -24.61552 -0.69161093
8.2823277 -24.753458 -0.70033038
8.8159294 -24.696499 -0.73878062
9.5513802 -24.645107 -0.85241991
10.122734 -24.71291 -0.72721386
10.403481 -24.803143 -0.72073656
10.718567 -24.768827 -0.85919929
25.50635 -24.6087 -0.87565285
26.578094 -24.612093 -0.78329325
26.95504 -24.720369 -0.86114514
27.036911 -24.744808 -0.79746258
27.306162 -24.849079 -0.84161991
-33.488342 -24.518715 -0.69223928
-33.195217 -24.4536 -0.64639306
-30.852943 -24.465462 -0.71005028
-29.777073 -24.552881 -0.60245371
-27.345783 -24.33745 -0.66688347
-27.08666 -24.346952 -0.61065763
-17.590675 -24.511532 -0.66080135
2.0661063 -24.506468 -0.84260046
7.8492374 -24.552629 -0.64798641
9.0961246 -24.455017 -0.69256282
9.5799656 -24.458935 -0.76369053
9.7599745 -24.490585 -0.67393875
10.040302 -24.49567 -0.73587525
26.864628 -24.457148 -0.7449975
27.148899 -24.366364 -0.67313308
27.550585 -24.432833 -0.66041923
-32.533504 -24.074812 -0.71372437
-31.931526 -24.19367 -0.68846023
-30.848351 -24.11948 -0.70140934
-30.483204 -24.214684 -0.6330955
-29.448997 -24.026222 -0.70188475
-29.007683 -24.160213 -0.62834734
-28.623631 -24.221838 -0.65689003
-28.430143 -24.252041 -0.65623283
-26.787277 -24.249084 -0.69396317
6.4655948 -24.078604 -0.75460732
8.2409229 -24.113874 -0.63577765
9.8897018 -24.117504 -0.76383102
9.9898586 -24.059317 -0.65390855
27.136135 -24.054306 -0.79895902
27.453274 -24.132511 -0.79413754
-33.057896 -23.714199 -0.68284613
-32.974579 -23.707489 -0.64054751
-29.923685 -23.921387 -0.62770844
-15.428589 -23.743219 -0.74251956
7.0758924 -23.923594 -0.77466834
8.4433327 -23.743069 -0.88054311
8.8166771 -23.946066 -0.79239041
9.4694157 -23.911177 -0.88863623
9.6969185 -23.795029 -0.76923025
10.217279 -23.875822 -0.89323509
26.65716 -23.725935 -0.78683752
26.7507 -23.704054 -0.75715458
27.457794 -23.974091 -0.70649958
-32.931679 -23.697725 -0.66829115
-31.762566 -23.533857 -0.68665773
-31.470188 -23.692696 -0.63913852
-30.63023 -23.481121 -0.65398836
-30.344179 -23.513323 -0.67132378
-29.784935 -23.50853 -0.63126886
-28.946323 -23.574306 -0.65402317
-28.011425 -23.636196 -0.61593628
1.3434814 -23.542542 -0.84909987
8.1537762 -23.693974 -0.72385538
8.481493 -23.504375 -0.70659405
8.8201456 -23.574732 -0.80451798
9.1444683 -23.556049 -0.87504041
9.4811106 -23.406868 -0.60127807
10.062216 -23.480707 -0.84624904
10.231456 -23.441761 -0.81685942
-32.35862 -23.228327 -0.671758
-30.809259 -23.280087 -0.63061792
-29.897226 -23.235525 -0.6781435
-29.579626 -23.34783 -0.61628526
-17.304886 -23.374258 -0.66561264
9.7927532 -23.16431 -0.72256517
26.363005 -23.114262 -0.88710237
27.38003 -23.17679 -0.77474302
-31.125994 -22.80942 -0.68720227
8.8992329 -22.918781 -0.70995426
9.0157471 -22.894117 -0.60553831
21.812887 -22.939371 -0.7298134
27.525244 -22.891205 -0.74006015
-101.02291 -22.516037 -0.75563443
-29.949413 -22.638683 -0.67790437
-29.438005 -22.647284 -0.64534777
-28.913637 -22.704412 -0.65938652
-14.637094 -22.767244 -0.68187207
9.7515898 -22.543968 -0.81907928
26.806757 -22.57933 -0.78538543
-102.28422 -22.370306 -0.60870397
-101.03188 -22.489019 -0.71592021
-99.314445 -22.252241 -0.86151814
-29.170694 -22.268726 -0.6084578
-23.16029 -22.213442 -0.62897992
-12.349182 -22.35552 -0.79511559
9.53757 -22.369162 -0.72403228
9.8230495 -22.392986 -0.81718725
-29.23554 -22.174725 -0.67310143
-19.464888 -22.081667 -0.61642486
-15.798082 -22.03611 -0.68831325
-14.17532 -22.064575 -0.82626575
-4.020453 -21.989239 -0.82644123
-3.5743115 -22.086817 -0.77171183
9.3439283 -22.185686 -0.75809962
20.587791 -21.906731 -0.69983214
26.344202 -22.196091 -0.78333074
26.502161 -22.143692 -0.84513855
-96.312119 -21.687 -0.89659691
-16.550812 -21.818832 -0.66472399
-15.994341 -21.790211 -0.68561852
-12.456295 -21.775537 -0.74776769
-5.9295697 -21.723797 -0.7280758
-3.2031288 -21.838142 -0.80914068
9.7797327 -21.751617 -0.66849923
-21.556431 -21.438339 -0.63631999
-14.559901 -21.357048 -0.79111415
-12.919631 -21.30909 -0.62606049
-11.524831 -21.384459 -0.81594962
-11.356979 -21.408663 -0.75170249
-9.7690296 -21.337036 -0.62575489
-5.0523629 -21.484291 -0.7152074
9.3416309 -21.379789 -0.63547277
26.758179 -21.493273 -0.82051092
-15.011462 -21.19466 -0.62527621
-14.302216 -21.241901 -0.83441913
-13.651934 -21.137043 -0.84744906
-12.801805 -21.299927 -0.68515557
-9.7234058 -21.071474 -0.75111687
-8.8409147 -21.25395 -0.68432838
-6.9773617 -21.084023 -0.78327382
-6.4365983 -21.204241 -0.72589159
9.2377386 -21.21245 -0.89358878
26.413229 -21.011112 -0.89466476
26.731522 -21.293947 -0.75703442
-20.131702 -20.762499 -0.6464411
-15.577672 -20.725233 -0.63974559
-14.200768 -20.868385 -0.69745797
-13.03025 -20.777496 -0.71103007
-12.896588 -20.732414 -0.64515984
-9.6581974 -20.962955 -0.65542001
-9.3527584 -20.843918 -0.64186668
-9.2923002 -20.83168 -0.663863
-7.9506469 -20.950281 -0.74707282
-7.588203 -20.824657 -0.70579863
-7.3642197 -20.788754 -0.72681296
-6.7377372 -20.979517 -0.66746837
-5.2969909 -20.75111 -0.81851608
-3.9926271 -20.841118 -0.7851733
-3.7059364 -20.795456 -0.79687893
-2.8701589 -20.783287 -0.75939906
-1.931524 -20.863937 -0.72276646
-15.904772 -20.556351 -0.66194487
-14.079659 -20.418299 -0.78506655
-13.422139 -20.496115 -0.75180954
-12.801491 -20.671953 -0.70557928
-12.526951 -20.599457 -0.81373942
-12.215913 -20.598587 -0.61886173
-9.4684868 -20.55839 -0.70334709
-9.2426758 -20.682745 -0.64146352
-7.0841084 -20.47821 -0.70554322
-5.808629 -20.623095 -0.78143799
-5.5358925 -20.557688 -0.83548009
-5.1406407 -20.402719 -0.72790897
-4.3898458 -20.418194 -0.87441146
-4.0962944 -20.575573 -0.78725398
-3.8064041 -20.627316 -0.70936638
-2.9909728 -20.676538 -0.86120957
22.784252 -20.699484 -0.78390253
27.16522 -20.648336 -0.88377696
-50.274643 -20.265781 -0.65451306
-14.59215 -20.135168 -0.69224095
-14.147553 -20.125877 -0.76408362
-13.954305 -20.134388 -0.60316372
-13.623806 -20.351023 -0.75843775
-13.290384 -20.224388 -0.69260037
-12.344072 -20.351793 -0.78412569
-12.239729 -20.282158 -0.70072359
-11.660487 -20.211929 -0.63390577
-9.2179461 -20.308775 -0.73607916
-8.9364519 -20.300192 -0.7228353
-8.6485748 -20.207443 -0.77390814
-8.0793381 -20.199423 -0.76953828
-7.5501938 -20.307449 -0.69111514
-7.0263267 -20.346241 -0.74098283
-5.8136668 -20.196093 -0.81413597
-5.219378 -20.218601 -0.71193886
-4.6795845 -20.274113 -0.87528718
-3.7523167 -20.227613 -0.7323373
-2.7834649 -20.248257 -0.87445605
8.1564789 -20.27787 -0.677495
34.740753 -20.336063 -0.89580703
-14.196575 -19.917156 -0.65047187
-14.052614 -19.888468 -0.69214374
-13.412233 -19.915001 -0.74073726
-12.95804 -19.898785 -0.65617108
-12.758578 -19.888445 -0.6599099
-12.590744 -19.868462 -0.74043417
-11.214515 -19.891302 -0.60337377
-10.95161 -19.845564 -0.66939384
-10.56769 -20.079655 -0.67479342
-10.342003 -19.804768 -0.70935917
-10.104644 -19.882936 -0.69859487
-9.670392 -19.82439 -0.79033589
-9.0775108 -19.972198 -0.71113694
-8.9943371 -20.063778 -0.61242282
-8.4628134 -19.941978 -0.77090341
-7.3130627 -19.926241 -0.84202015
-7.080399 -19.957031 -0.8285265
-6.6017723 -19.855118 -0.63330382
-6.5258083 -19.900047 -0.73143554
-6.038404 -19.951801 -0.82558745
-5.8381352 -19.988007 -0.89794105
-5.4343815 -19.806919 -0.80943936
-5.3998933 -19.832891 -0.85650688
-4.9878483 -20.013857 -0.81086278
-3.9986181 -19.921947 -0.83986127
-3.1755052 -19.988501 -0.78598642
-2.9403412 -20.065628 -0.76533437
7.8020592 -20.018578 -0.85266089
-16.550484 -19.504572 -0.678379
-14.111401 -19.583063 -0.77722317
-13.295436 -19.635277 -0.72147566
-11.546924 -19.629169 -0.64187872
-11.172435 -19.781332 -0.69779557
-10.435525 -19.688274 -0.78675705
-9.9997044 -19.616571 -0.75710905
-9.7386761 -19.66539 -0.75638258
-9.3287849 -19.557497 -0.71977717
-9.1636381 -19.514679 -0.63476455
-8.4878006 -19.60882 -0.74144232
-7.9353247 -19.595394 -0.78539467
-7.665895 -19.773394 -0.76855892
-7.2164493 -19.725346 -0.74534291
-7.115047 -19.708652 -0.70382822
-6.7487259 -19.698296 -0.7677561
-6.5670047 -19.744017 -0.79199499
-6.2316995 -19.61698 -0.86083716
-5.7596893 -19.636845 -0.79651868
-5.670455 -19.630768 -0.67137724
-5.2650218 -19.656992 -0.73240268
-4.7149081 -19.5833 -0.78158975
-4.4934602 -19.665703 -0.88791209
-17.078169 -19.444109 -0.62929326
-16.676422 -19.206676 -0.65626854
-13.692331 -19.351154 -0.66989362
-13.175508 -19.295233 -0.60764295
-12.825404 -19.468031 -0.74652505
-12.413961 -19.368284 -0.80710983
-12.218338 -19.401804 -0.70107293
-11.835462 -19.368143 -0.78423291
-11.555478 -19.366735 -0.73906744
-10.856976 -19.344868 -0.62732971
-10.169956 -19.248051 -0.6985445
-9.7256145 -19.294279 -0.80576706
-9.1063805 -19.235769 -0.72302312
-7.8055134 -19.333702 -0.72993249
-7.7818456 -19.321516 -0.80207288
-7.498076 -19.230671 -0.80733687
-7.0854349 -19.34478 -0.70188725
-6.7080069 -19.40843 -0.63324362
-6.5113997 -19.264212 -0.68600875
-6.0271859 -19.340443 -0.72708642
-5.8527284 -19.248539 -0.81182599
-4.5995417 -19.26573 -0.79001349
-4.4157 -19.268322 -0.78822458
-2.8816698 -19.371094 -0.88354796
9.2656717 -19.464108 -0.81420892
9.3752594 -19.451975 -0.74358845
27.298735 -19.434631 -0.74559641
-14.055699 -19.169867 -0.78170174
-13.312367 -18.96833 -0.67050934
-12.372577 -19.187452 -0.78531396
-11.320739 -18.938204 -0.71203864
-9.9732237 -19.02137 -0.68078053
-9.7730474 -19.194044 -0.63302636
-8.3791208 -19.013119 -0.74607635
-7.9448833 -18.922783 -0.68421996
-7.3809495 -19.112993 -0.73960149
-7.020997 -19.053356 -0.74301857
-5.8261099 -18.910467 -0.81921899
-5.6654425 -19.146349 -0.74128455
-4.5935683 -19.149416 -0.75515079
-3.8053832 -19.137318 -0.66054833
-1.819526 -19.060699 -0.86723012
9.2023535 -19.09589 -0.87987566
12.758644 -19.040375 -0.65745074
26.562111 -19.038221 -0.77921593
26.897051 -18.924873 -0.74136406
27.068968 -19.027184 -0.80649924
27.360195 -18.983707 -0.86448199
27.672356 -19.028013 -0.83077222
-18.551638 -18.812555 -0.63493359
-16.644869 -18.728241 -0.712892
-13.542752 -18.856468 -0.60393709
-13.457238 -18.830421 -0.6611619
-11.811061 -18.6989 -0.60453272
-9.3065882 -18.608564 -0.66460955
-8.7155218 -18.897316 -0.64060771
-8.6035357 -18.75351 -0.61513984
-8.2616205 -18.836647 -0.6648612
-7.640449 -18.612532 -0.67367923
-7.3728328 -18.696266 -0.86264181
-7.0144763 -18.799845 -0.72098273
-6.8058538 -18.869835 -0.88774872
-6.4440293 -18.711657 -0.82832778
-6.235527 -18.627064 -0.8631649
-4.9558554 -18.85812 -0.81062895
-4.2694616 -18.610798 -0.76020193
9.1122732 -18.802139 -0.75953406
26.605347 -18.740976 -0.80108553
26.830379 -18.735266 -0.77751064
27.181534 -18.818594 -0.82980394
-15.055176 -18.49235 -0.6850704
-10.061033 -18.327721 -0.72089106
-8.255826 -18.413464 -0.75398487
-7.9743867 -18.393118 -0.71606368
-7.7551184 -18.463596 -0.71504176
-7.0325599 -18.316616 -0.72526586
-6.8272047 -18.443068 -0.7625038
-6.1538367 -18.541256 -0.82342899
-4.8326998 -18.403633 -0.84661132
-4.7013798 -18.345278 -0.80754757
-4.3026166 -18.311472 -0.8238821
-4.1156173 -18.491051 -0.82100332
-2.3267076 -18.336882 -0.77918261
12.51396 -18.526897 -0.67222828
26.902603 -18.512066 -0.77678365
27.157528 -18.394615 -0.70243597
-9.9951172 -18.143675 -0.74774724
-9.8085976 -18.089069 -0.71118391
-8.4449234 -18.198719 -0.80676568
-7.6691017 -18.141041 -0.80556393
-7.425168 -18.175795 -0.86939532
-6.7695794 -18.138775 -0.70626372
-5.7905655 -18.183807 -0.63627356
-5.5636835 -18.07391 -0.83851159
-5.3368936 -18.1101 -0.83676285
-4.1837258 -18.071938 -0.67690176
-2.858006 -18.120813 -0.80900913
-2.4267457 -18.078117 -0.79547828
1.1329114 -18.13036 -0.88883287
2.4953473 -18.258059 -0.71773523
11.831297 -18.205875 -0.76968902
26.888208 -18.097666 -0.89279634
27.175377 -18.104731 -0.83341199
-9.2398434 -17.852194 -0.62899214
-6.2148237 -17.982788 -0.66292679
-4.431726 -17.870359 -0.78056771
26.591007 -17.759615 -0.67826575
26.858137 -17.842535 -0.86566561
27.05275 -17.928766 -0.80067652
-11.685843 -17.690887 -0.82996827
-9.7585278 -17.603767 -0.64113402
-7.2831821 -17.552202 -0.80363989
-7.077414 -17.474827 -0.7858144
-6.849299 -17.54637 -0.67910475
-5.9659281 -17.621628 -0.74421722
-3.1554065 -17.446947 -0.85542423
11.785265 -17.605215 -0.81693935
15.027653 -17.474621 -0.6278339
26.950806 -17.476004 -0.68086833
27.053051 -17.512665 -0.66758347
-11.247704 -17.357763 -0.8217327
-10.120513 -17.27302 -0.69210613
-9.1876926 -17.149612 -0.81728327
-6.8810253 -17.375443 -0.81567347
7.6139894 -17.222872 -0.7213552
8.6542892 -17.177063 -0.76023966
8.9131727 -17.172825 -0.7731384
9.4122639 -17.120785 -0.67544472
14.967237 -17.185125 -0.69581664
27.143251 -17.369579 -0.77372295
-11.513399 -17.069971 -0.85559601
-9.3642979 -17.054249 -0.88079679
-8.8951702 -16.99123 -0.77116334
-1.6701055 -16.869131 -0.69192523
-1.489091 -16.84495 -0.75017232
7.6226335 -17.08021 -0.74071342
8.4943037 -16.920462 -0.7136721
14.922706 -16.954597 -0.70774418
15.14745 -16.990532 -0.65831989
26.012003 -16.859047 -0.87757659
26.748804 -17.069876 -0.7737177
27.125824 -17.020037 -0.7245996
27.362238 -17.093145 -0.72450018
-3.8333914 -16.581417 -0.86223668
8.1966524 -16.722622 -0.68929827
8.9842634 -16.784603 -0.87633944
11.232425 -16.668829 -0.82292223
14.97768 -16.657701 -0.64645368
15.042064 -16.585997 -0.65174204
26.575127 -16.662004 -0.80752742
7.3328915 -16.338207 -0.83562899
7.7134614 -16.246202 -0.77170026
8.2225723 -16.450268 -0.71809131
8.5249071 -16.332758 -0.68120575
8.8590431 -16.409311 -0.71338171
9.2084713 -16.22007 -0.80381024
9.3924427 -16.239082 -0.79429615
15.086576 -16.357576 -0.65936351
-3.0192006 -15.913205 -0.84925801
7.6613016 -16.037163 -0.83331937
8.6706657 -16.031281 -0.80820441
9.1321468 -16.048428 -0.69755423
9.4009819 -16.012701 -0.75153565
8.6840982 -15.839511 -0.64455205
8.7331533 -15.890779 -0.71533126
15.098301 -15.816109 -0.6998831
15.376741 -15.791164 -0.76619482
25.896076 -15.847633 -0.85025972
7.7224393 -15.476419 -0.67726368
8.0006866 -15.414416 -0.70955676
8.5071783 -15.436215 -0.71099275
8.7402973 -15.563385 -0.76095319
11.824867 -15.579829 -0.82923216
12.106618 -15.358905 -0.80646616
14.847088 -15.463335 -0.71197438
26.385197 -15.354865 -0.72059274
7.1248908 -15.077076 -0.84816027
7.2949371 -15.025568 -0.81055462
7.7088451 -15.232216 -0.84479117
8.2555904 -15.16993 -0.67984992
8.5739832 -15.094116 -0.73207438
8.7284708 -15.227258 -0.761801
11.507048 -15.227088 -0.8205725
14.590259 -15.253704 -0.66032994
15.102357 -15.116621 -0.67653716
20.421789 -15.092523 -0.79851037
26.302498 -15.28659 -0.78854179
6.9849205 -14.740879 -0.82186151
7.2865205 -14.848232 -0.82797664
7.6142645 -14.717413 -0.73501402
8.0568075 -14.981901 -0.67313099
8.3447599 -14.907466 -0.68029177
8.4812593 -14.885669 -0.71014261
8.8209457 -14.806745 -0.66820419
14.656074 -14.818519 -0.74008107
14.797318 -14.848775 -0.72953701
15.056582 -14.85946 -0.71981198
6.8067451 -14.651957 -0.66591424
7.3648438 -14.644531 -0.67934495
7.6702375 -14.558821 -0.63735217
7.9425201 -14.443968 -0.76648217
8.3901863 -14.688489 -0.71559775
8.5528307 -14.571694 -0.72318548
8.8989944 -14.51685 -0.81684691
9.1424389 -14.542486 -0.80722177
9.4044571 -14.465737 -0.79763728
11.827336 -14.592969 -0.78229636
14.906886 -14.527057 -0.79947215
15.298903 -14.54052 -0.68196177
24.60951 -14.691151 -0.72071922
26.563597 -14.494099 -0.86434978
26.737062 -14.416506 -0.85990489
34.954906 -14.429994 -0.84664935
7.1187968 -14.243176 -0.8264873
7.7351923 -14.128228 -0.77924776
7.9638433 -14.177866 -0.67422843
8.2600727 -14.247738 -0.70834625
8.578598 -14.206189 -0.68380034
8.8496418 -14.18841 -0.8610096
9.1267376 -14.185227 -0.79798841
9.7169619 -14.250294 -0.83219272
11.543216 -14.250286 -0.87216264
13.159763 -14.259686 -0.78030783
13.275642 -14.218304 -0.7572096
14.760608 -14.177095 -0.62711477
25.448177 -14.323373 -0.86278856
25.546621 -14.313803 -0.87751913
27.022745 -14.331328 -0.89522552
34.249123 -14.111284 -0.88034999
7.2925014 -14.032457 -0.77027011
7.728828 -13.930936 -0.75328279
7.9554381 -14.039012 -0.76259172
8.3027534 -14.006932 -0.78088331
8.4088087 -14.08925 -0.8170805
8.8051662 -14.00824 -0.76345122
9.0262775 -13.921116 -0.80798715
9.66014 -13.850071 -0.85479414
14.640012 -13.966778 -0.8277449
15.350563 -14.038177 -0.76195496
7.5608468 -13.660053 -0.84968585
7.9258027 -13.688695 -0.75850338
8.6122761 -13.587087 -0.76251
8.8213272 -13.65167 -0.81314421
9.1903811 -13.716019 -0.84921819
9.4223127 -13.724705 -0.85487348
13.668515 -13.604228 -0.75458634
14.568395 -13.673958 -0.71727234
