# .PCD v0.7 - Point Cloud Data file format
VERSION 0.7
FIELDS x y z
SIZE 4 4 4
TYPE F F F
COUNT 1 1 1
WIDTH 1570
HEIGHT 1
VIEWPOINT 0 0 0 1 0 0 0
POINTS 1570
DATA ascii
34.029953 27.825495 0.43730739
34.304653 27.661879 0.50401974
34.50489 27.891541 0.34654123
35.227673 27.757383 0.49281368
37.292286 27.706804 0.42984375
38.525566 27.736124 0.49954611
38.724895 27.875107 0.5696525
32.981129 28.092344 0.38118932
33.04406 28.170729 0.44855064
34.330341 28.114563 0.33254424
34.747696 28.123285 0.31275308
35.361214 27.931389 0.50007975
36.373577 28.035799 0.46415865
36.880753 28.111929 0.34636837
37.887913 28.08411 0.49302739
39.081409 28.116369 0.3975406
40.495815 28.127571 0.42465064
32.338135 28.201208 0.48802486
32.450798 28.2311 0.37463653
34.196136 28.232056 0.35797131
34.304111 28.35112 0.40822238
35.913666 28.461229 0.4642812
36.124332 28.431194 0.48774368
36.516842 28.218323 0.36696267
36.999916 28.221813 0.46837586
37.362999 28.336899 0.47719741
37.58469 28.401924 0.46835494
38.069603 28.476004 0.48129979
38.389484 28.286722 0.47478262
38.655132 28.28993 0.47057119
38.72942 28.33341 0.49566737
34.155918 28.516342 0.49025592
35.114178 28.701763 0.43921471
36.099926 28.595739 0.48825717
37.33342 28.711716 0.55263674
38.237125 28.589737 0.44368806
39.238018 28.586956 0.34463212
32.213535 28.90803 0.53451872
33.839924 29.066458 0.43112093
33.927116 29.090876 0.48297772
35.251392 28.871216 0.52118874
36.607712 29.041401 0.41463086
31.687632 29.210417 0.45631135
33.517704 29.300018 0.43549219
33.710945 29.234049 0.49976578
34.150757 29.118546 0.35189593
34.53101 29.336376 0.45926839
35.06004 29.225019 0.46054122
35.151863 29.279915 0.49670362
38.321297 29.384216 0.49651492
33.663895 29.609699 0.52923882
36.32383 29.644608 0.56065589
38.345127 29.402992 0.46776986
33.398762 29.726061 0.39822611
35.816479 29.749466 0.50202399
38.15358 29.710636 0.41864958
30.842861 30.071877 0.34204865
33.603683 30.186083 0.35973042
37.158951 30.15303 0.39992833
37.228935 30.218224 0.48368555
37.973366 30.055862 0.37241119
34.491657 30.397413 0.56273139
34.220707 30.644121 0.4783138
34.628448 30.894634 0.4991498
38.644951 30.664865 0.47390252
32.636459 31.02607 0.47658104
33.615726 30.954636 0.4710772
34.733646 30.98354 0.58060926
37.350155 31.083467 0.43075934
36.349144 31.593166 0.42884272
35.147884 32.144386 0.59423798
33.498692 33.526897 0.57964259
33.469452 -9.1102276 0.89266825
34.351257 -7.6529942 0.72569251
31.635811 -2.0282698 0.71490985
33.9212 -1.1944015 0.67449826
33.203033 -0.71620619 0.69667065
33.096363 -0.32319567 0.68277895
22.69173 0.3128491 0.70136619
25.189865 0.48480412 0.74111855
33.119427 0.32046294 0.76059723
80.558662 10.558459 0.60952884
87.035408 10.785515 0.70009667
80.791214 10.872265 0.62693858
81.845947 11.09888 0.69392842
87.514862 10.970188 0.72774529
87.757446 10.981832 0.7632786
75.767258 11.363085 0.61293763
82.278931 11.252556 0.65696847
84.688164 11.242779 0.74696141
86.418167 11.237514 0.71898681
78.289825 11.6924 0.71042681
78.707298 11.688248 0.60272926
80.295982 11.541097 0.6813975
81.579681 11.553111 0.74795151
81.84845 11.448784 0.65050858
84.218033 11.48875 0.72306055
77.960655 11.916817 0.71296966
78.086571 11.847323 0.72030699
78.407654 11.726683 0.6666978
79.019005 11.894286 0.63394946
79.633392 11.886334 0.68382597
80.196808 11.900636 0.60763919
80.443924 11.765453 0.74939561
82.135513 11.800288 0.64437449
84.247345 11.911464 0.68636388
76.977486 12.246763 0.66627526
77.795601 12.042615 0.69568008
78.214439 12.234452 0.62215942
78.374023 12.081465 0.65474713
78.702812 12.055011 0.6993717
80.039001 12.237273 0.73352706
82.998795 12.237865 0.74215525
88.865196 12.082737 0.85948569
66.791306 12.399237 0.63966703
75.853477 12.46497 0.70875341
76.613922 12.440124 0.77720165
77.116005 12.416614 0.62857586
79.931923 12.450752 0.63099396
80.330421 12.399265 0.80603021
80.597702 12.397114 0.77699208
80.726425 12.42837 0.73326278
81.925919 12.573875 0.76602048
82.454842 12.301075 0.68512261
83.302132 12.379537 0.65540642
86.28096 12.516091 0.65160525
87.415176 12.572186 0.72405392
87.623749 12.49017 0.67331672
87.979065 12.592466 0.8253724
65.081749 12.643031 0.64209759
71.493439 12.798032 0.68360686
72.072388 12.714595 0.68782121
72.542175 12.721507 0.62570065
72.725586 12.717563 0.71972871
73.756828 12.888301 0.67649108
77.873108 12.638073 0.60710108
79.38105 12.637003 0.70650822
79.605705 12.794261 0.65689039
79.821869 12.845733 0.78983629
80.957138 12.698364 0.76555502
81.339142 12.620872 0.76907122
81.837166 12.784219 0.70531732
82.008842 12.625575 0.7136817
82.395439 12.847592 0.68060422
82.667587 12.797469 0.78801274
86.055107 12.787061 0.70181322
87.736328 12.783099 0.85405332
88.138794 12.804992 0.81583756
88.47937 12.89406 0.62131643
89.06971 12.880764 0.80120802
89.834167 12.766716 0.79117501
90.826355 12.855298 0.7741099
63.431583 12.934563 0.63382375
65.491722 12.985427 0.67694497
66.723381 13.08626 0.69837916
68.149719 13.029275 0.69347197
70.745682 13.057096 0.70224029
71.122353 12.926558 0.70485967
75.564636 13.019327 0.61121565
78.34214 13.103113 0.7121917
79.482315 13.113098 0.84541929
79.958107 13.138168 0.83181131
81.927437 13.019625 0.80304813
84.753242 13.034257 0.89972419
85.879288 13.092098 0.76743293
87.324516 13.119132 0.88486093
87.868431 13.139962 0.65171278
88.105438 13.003235 0.84185219
88.236641 13.010582 0.88661456
88.574089 12.923552 0.73676616
55.996052 13.428553 0.60134751
63.096699 13.289568 0.66544676
63.39883 13.4011 0.64439332
64.278778 13.391725 0.63702518
66.882668 13.440869 0.68723524
67.222145 13.486921 0.65116531
68.323479 13.457522 0.66911572
69.451591 13.35923 0.61753744
70.429413 13.372229 0.70553511
71.705078 13.385332 0.72966838
72.253403 13.238086 0.73734355
72.534142 13.345855 0.65087253
73.358063 13.442545 0.60359484
73.939056 13.401077 0.77961564
74.918808 13.350021 0.75584114
75.717667 13.329842 0.61627036
79.593933 13.443559 0.67545813
80.368057 13.272989 0.70978481
80.973442 13.488839 0.82800126
83.953278 13.474461 0.7106958
84.454277 13.299154 0.84161615
87.778473 13.38391 0.87001133
88.059929 13.309498 0.80089414
88.236885 13.204781 0.72524381
91.681 13.269793 0.6624319
56.316608 13.587744 0.62306893
58.235992 13.583748 0.65089953
59.988182 13.799642 0.71083558
62.345806 13.788938 0.66183883
64.043983 13.634794 0.69267297
64.201263 13.769845 0.61241013
64.705109 13.602681 0.66286319
66.385391 13.509707 0.71330512
67.165665 13.588163 0.62479937
67.781746 13.748627 0.69415623
68.200035 13.722838 0.78696531
68.443184 13.526821 0.73022634
69.649681 13.53233 0.72738117
71.286308 13.58789 0.714221
71.562653 13.780194 0.70572197
72.107666 13.717407 0.67472112
72.559303 13.667049 0.63640672
72.919518 13.538569 0.74954224
74.28907 13.691198 0.61480737
77.053711 13.59529 0.75475103
77.685852 13.798895 0.6324181
77.873741 13.643949 0.67510015
79.349701 13.677086 0.76273656
80.659073 13.526603 0.73266625
80.811409 13.591206 0.73023772
81.14856 13.53836 0.85276574
82.591545 13.597866 0.85702789
91.222534 13.764761 0.79595751
91.730392 13.750467 0.65698385
55.113285 14.060271 0.60078961
58.069221 13.906517 0.61374956
59.132065 13.930811 0.61431009
61.94825 13.981602 0.64906108
63.699257 13.949585 0.64952242
64.097847 14.009361 0.72544479
64.311974 13.954326 0.72552776
64.763962 13.828014 0.64621818
64.859978 13.887234 0.77452451
65.670036 13.874772 0.61131358
65.766495 13.934111 0.65522206
66.322693 13.918169 0.7057218
67.509811 13.831936 0.74103385
68.6922 13.800164 0.65929765
68.95208 14.03104 0.67852396
69.01963 14.055701 0.67884272
70.258141 13.831033 0.66484022
71.493179 13.822514 0.76696157
73.998123 14.014656 0.74998903
74.63903 14.071648 0.62753916
74.917915 13.898538 0.63074791
75.133453 14.016068 0.79777604
75.522873 13.940194 0.64118046
75.821983 14.08449 0.78911138
76.533203 13.877172 0.8081786
77.198151 13.827222 0.85285378
77.444931 14.046055 0.78108692
77.819603 14.021428 0.7852152
80.003632 13.94939 0.84818459
83.071205 13.87689 0.64821911
91.796272 13.800166 0.85431749
56.130512 14.247048 0.6734271
60.710854 14.212472 0.71391803
61.146957 14.210052 0.718467
62.604401 14.273195 0.67124832
63.657108 14.253814 0.76596302
64.301628 14.112545 0.68182677
67.625298 14.225437 0.65593195
71.001938 14.273374 0.74364734
71.298706 14.265304 0.73858303
72.091644 14.172 0.74112242
73.484261 14.299491 0.74784845
73.639038 14.311084 0.7995798
73.974792 14.294388 0.69565052
75.260033 14.135945 0.82444763
75.755653 14.219107 0.73370928
75.949059 14.341393 0.66008961
76.90593 14.212902 0.80586386
77.32486 14.26453 0.8366344
77.893944 14.298565 0.70383412
79.907654 14.303885 0.71537101
80.74131 14.144987 0.70365179
81.212769 14.18512 0.64367729
82.495659 14.187716 0.68644083
82.68911 14.240091 0.71790147
83.081642 14.131295 0.86032474
84.483765 14.234533 0.70543867
51.913342 14.472907 0.66807669
52.389839 14.588316 0.6300292
53.989258 14.471162 0.62374717
54.019943 14.46806 0.60864145
54.72797 14.587538 0.60477215
56.947922 14.43453 0.63605613
57.042583 14.620547 0.64529711
58.116966 14.648226 0.63963324
59.655209 14.622684 0.72374099
60.187439 14.604838 0.72772044
60.392303 14.494949 0.69392693
61.276218 14.424538 0.6408419
66.430382 14.501085 0.77279264
66.826965 14.511271 0.65121168
67.008316 14.515063 0.73667133
68.115028 14.53599 0.73822731
68.575256 14.555485 0.74625927
70.453674 14.420964 0.81048626
70.777084 14.62108 0.78689575
71.321259 14.573058 0.83074248
71.532043 14.653692 0.79066813
71.995453 14.616155 0.8512997
72.588242 14.599634 0.758793
73.108627 14.636453 0.87687677
73.87442 14.413496 0.87655669
78.2575 14.687689 0.7917341
79.370438 14.496315 0.82779086
81.243538 14.542583 0.88388062
81.47139 14.484023 0.80063283
48.189503 14.776685 0.65064973
51.978939 14.806581 0.714306
54.221954 14.713648 0.64082617
54.354931 14.921303 0.63210237
58.537807 14.706408 0.60365105
58.960289 14.875628 0.61684173
59.152328 14.750532 0.72971117
62.444885 14.876086 0.85129714
64.372627 14.845519 0.82819003
64.571854 14.799301 0.76032066
65.15641 14.890246 0.87129122
66.299622 14.773319 0.6225217
66.498466 14.80202 0.66775721
66.717567 14.826581 0.74128532
67.194458 14.788877 0.687361
67.352791 14.789909 0.7920444
67.669006 14.85679 0.76875538
68.86969 14.929396 0.75286782
69.634399 14.759206 0.88219666
70.064819 14.955433 0.79571199
70.292595 14.761857 0.76314521
70.564049 14.835054 0.8329044
70.964111 14.700836 0.6070115
71.336372 14.712505 0.84635323
71.694046 14.976446 0.70569587
71.829453 14.856696 0.73706681
73.483521 14.849517 0.88095826
74.122345 14.715644 0.65908062
79.888008 14.962206 0.80184633
81.748138 14.894068 0.73702323
82.059143 14.72471 0.71372539
88.480331 14.760369 0.73678058
43.167885 15.284515 0.63836545
53.050991 15.172073 0.6643495
55.280586 15.281131 0.66372514
55.519039 15.284096 0.8187297
56.481361 15.16495 0.60478443
59.207077 15.229966 0.8032847
60.349236 15.205626 0.6563192
61.765621 15.282628 0.88933057
61.980484 15.168653 0.66026229
62.496426 15.263369 0.79116321
62.964634 15.096365 0.87532449
63.73584 15.213976 0.69666862
65.236481 15.259489 0.77326071
66.373367 15.258224 0.61044425
66.778519 15.284362 0.70337957
66.937439 15.167883 0.74133742
67.328278 15.151385 0.65807003
67.587639 15.207793 0.64831966
69.769928 15.255361 0.78750801
70.696732 15.078275 0.72379082
71.490677 15.179777 0.76881027
88.861504 15.064256 0.66148013
42.794167 15.431459 0.63187695
43.511524 15.578385 0.61564779
44.047619 15.524282 0.67995894
47.028191 15.405737 0.71037757
50.646564 15.509604 0.65236294
55.160809 15.436382 0.68344682
55.351753 15.466477 0.70985001
56.33482 15.482268 0.84231901
57.788681 15.366645 0.85259783
59.070473 15.414198 0.68339825
59.65107 15.504119 0.61941862
60.292725 15.466516 0.6184572
61.19207 15.564441 0.63801086
62.324734 15.472941 0.73806691
62.40416 15.41944 0.8877154
63.958836 15.547084 0.86719495
66.582405 15.356809 0.7415812
66.660408 15.324232 0.82873863
67.048492 15.34254 0.88634247
67.45948 15.451917 0.67854238
67.725029 15.506714 0.736507
68.78434 15.553082 0.84632832
69.966682 15.319652 0.65170676
70.658241 15.446572 0.84185892
71.265915 15.516487 0.8142345
71.511299 15.498412 0.74609268
80.331505 15.588333 0.79006112
82.493614 15.357527 0.61861908
88.452957 15.408182 0.8875193
88.69252 15.504629 0.85285079
38.6492 15.762077 0.63572013
40.768486 15.640703 0.65301859
40.887161 15.663178 0.64803255
41.51395 15.74513 0.66128343
42.406727 15.65397 0.65244836
43.62495 15.620331 0.67255706
55.701218 15.740877 0.86323148
55.865917 15.811375 0.88426858
57.823509 15.77488 0.84964728
59.245285 15.749579 0.71499407
60.244125 15.705565 0.77700913
60.493114 15.842649 0.6634714
60.642101 15.82053 0.64950442
62.297657 15.686779 0.84999567
62.551392 15.760107 0.84063661
62.814186 15.725262 0.8557871
64.746391 15.839772 0.62190145
67.811455 15.629489 0.82177109
71.443687 15.610332 0.8457706
71.914276 15.604974 0.77416641
80.202896 15.76547 0.76954633
88.494919 15.608842 0.80717093
88.677773 15.896385 0.82326949
37.413269 15.988655 0.64102745
38.208344 16.101349 0.64598298
39.369068 16.169682 0.67818642
40.011242 16.037598 0.64503938
42.696224 16.043367 0.65410411
42.972343 16.146879 0.7308749
43.257881 16.045563 0.73145294
44.051056 15.929882 0.6402148
45.126938 16.158445 0.67480224
53.943535 16.171331 0.84274805
54.171013 16.025679 0.61598563
54.519386 16.104334 0.64322543
55.977859 15.944906 0.80540478
62.427494 16.130209 0.89016968
62.880096 16.02433 0.83750069
63.283051 16.037878 0.81166011
68.980003 15.947497 0.83280808
79.614998 16.006897 0.83718735
80.194191 15.906916 0.70048171
84.693779 15.993661 0.85400301
87.935539 15.915712 0.7446366
88.447533 16.151672 0.88122052
38.222336 16.401567 0.65193731
38.480328 16.383257 0.63426822
40.315773 16.351547 0.73430514
40.932686 16.321762 0.69401044
41.170948 16.366602 0.69076294
42.806725 16.341732 0.68174356
43.129055 16.332321 0.74344772
43.913296 16.350494 0.7392382
44.365585 16.362598 0.6912514
44.466782 16.466627 0.73938549
45.5037 16.256205 0.71768671
45.704674 16.483927 0.79577059
46.634605 16.332705 0.62773037
49.009338 16.461468 0.68157816
53.986385 16.356777 0.67208064
56.00275 16.367199 0.70374167
57.213455 16.41576 0.71132618
59.266582 16.224897 0.89821154
59.454876 16.249243 0.78879768
85.270889 16.382521 0.68059963
88.523102 16.201923 0.80138361
30.698719 16.742308 0.60484463
30.92079 16.569092 0.60461557
34.422237 16.584389 0.64324009
40.228085 16.778 0.6251744
40.999031 16.799204 0.6024875
41.144112 16.793995 0.77791744
43.904274 16.659494 0.8107357
45.788467 16.766792 0.64340079
55.296761 16.747471 0.82843465
56.552177 16.718246 0.77196103
56.768543 16.695688 0.78259629
85.019897 16.732613 0.87420034
30.199148 16.997879 0.62931269
32.66309 17.018202 0.64295566
34.417469 16.945869 0.63906401
40.333885 16.89242 0.6889866
40.718071 17.00625 0.72851163
41.254536 16.888493 0.70071203
42.027405 17.065012 0.6859116
43.400249 17.023079 0.749502
43.564983 17.077997 0.62743294
44.53466 17.065674 0.72896147
46.159489 17.034805 0.67255378
46.200359 16.97484 0.66057748
49.336201 16.822716 0.8261978
53.907429 16.916801 0.65070963
55.182564 16.838154 0.63968319
55.437016 16.815292 0.76728427
55.622719 17.010147 0.62585539
56.15229 16.8221 0.85549194
57.056301 16.958712 0.88164616
61.511993 17.070621 0.61508036
69.479675 17.091337 0.84438765
89.347824 17.033634 0.62103194
27.412304 17.262329 0.6419059
28.748941 17.370184 0.678581
29.501862 17.172325 0.61043841
29.868879 17.283655 0.68906659
30.362059 17.272209 0.63032889
30.637735 17.363541 0.66138148
31.883955 17.230206 0.65811688
34.518139 17.267025 0.69059807
39.747696 17.291351 0.6057108
40.837658 17.251369 0.74513197
41.135536 17.279325 0.78059804
42.065086 17.21669 0.63772392
42.463291 17.340866 0.67916989
43.118122 17.251381 0.68853438
43.415756 17.272385 0.70116007
43.633404 17.12228 0.65308005
44.049454 17.295334 0.66730714
44.294415 17.342972 0.71606028
44.539425 17.212322 0.74431336
44.741512 17.222946 0.68038005
45.509411 17.358332 0.62270564
47.097012 17.145634 0.76729625
47.994846 17.174334 0.88528669
53.724327 17.335705 0.65644294
54.156559 17.313753 0.72756898
26.321314 17.539618 0.61405128
27.266022 17.463741 0.62280476
27.39105 17.550913 0.69248039
29.479126 17.474459 0.65521252
30.447311 17.429472 0.62371093
35.404789 17.627514 0.69650888
39.20166 17.643301 0.86888677
41.64888 17.413361 0.62078559
41.715126 17.441271 0.61485183
42.518883 17.567371 0.68356425
42.671329 17.474617 0.69183028
44.379158 17.592436 0.63193476
44.421806 17.623852 0.65404516
45.411419 17.689718 0.71974868
45.827888 17.585236 0.71803033
46.163609 17.528196 0.70784241
46.423145 17.450787 0.7605238
49.061943 17.545174 0.86291903
52.820889 17.538134 0.7878508
53.750435 17.507923 0.78443789
55.214134 17.557276 0.84189302
58.679455 17.539057 0.7562024
59.033634 17.621403 0.81097466
61.469021 17.674309 0.64816558
19.35466 17.778709 0.60468811
24.375275 17.950167 0.69706708
24.718578 17.858833 0.66466212
26.605387 17.784895 0.64872122
26.84605 17.78466 0.66321599
27.195175 17.787842 0.68658435
27.330624 17.763084 0.67401052
28.309549 17.716787 0.66307986
29.001841 17.90233 0.67920667
29.283955 17.874435 0.64768207
29.542542 17.855597 0.6340903
30.148928 17.779709 0.68136269
30.698315 17.702333 0.61263371
31.055529 17.775803 0.75053322
31.756144 17.822554 0.6145224
31.879429 17.848213 0.70939296
32.105728 17.807812 0.60710001
33.343391 17.954542 0.6462822
34.105774 17.838394 0.65429002
42.54467 17.748806 0.67119288
45.211472 17.711012 0.63764697
45.449623 17.865835 0.83491009
45.742661 17.784964 0.61786467
46.376007 17.92849 0.80227196
46.69738 17.742699 0.69175458
51.72644 17.771828 0.72537327
54.438957 17.964069 0.78971553
55.270416 17.87722 0.80848855
20.451187 18.243872 0.63635945
21.213594 18.104797 0.65874267
21.671175 18.142021 0.66582376
22.339693 18.070312 0.61007267
24.371346 18.100286 0.63903481
24.651192 18.171347 0.64416838
25.640621 18.073433 0.68503314
26.54608 18.124825 0.65165997
26.790079 18.049141 0.65036768
27.796467 18.173525 0.75148976
28.360914 18.202747 0.66441292
28.543787 18.217817 0.67437762
30.1856 18.181105 0.7965219
30.325077 18.207237 0.77058142
32.043026 18.181376 0.6000405
33.29493 18.255327 0.6325919
33.441135 18.172522 0.71126169
33.703987 18.216276 0.69386584
38.590969 18.041132 0.60029531
42.197365 18.133575 0.82200903
42.742374 18.118252 0.72844827
45.388603 18.131744 0.6226393
45.720287 18.106483 0.698219
46.040359 18.105358 0.76241946
47.045483 18.172552 0.73123103
47.24762 18.187222 0.76308012
47.464165 18.158634 0.78516769
52.984966 18.144854 0.61205262
61.427719 18.018837 0.69462967
61.867306 18.213474 0.65593863
17.327488 18.545694 0.6549449
22.38846 18.393724 0.68877316
22.650967 18.474777 0.67998654
23.317932 18.527065 0.60727417
23.832516 18.380756 0.71475714
24.529495 18.399324 0.72958308
25.175953 18.576702 0.77857065
26.494272 18.374729 0.65153706
26.977274 18.401329 0.65218616
27.047405 18.419897 0.64434534
28.120474 18.315376 0.67808062
28.342285 18.470568 0.72864783
30.13195 18.417009 0.75523192
30.351793 18.306559 0.67735732
31.142174 18.304674 0.7829423
31.86977 18.577431 0.66992974
32.973553 18.315519 0.76187491
33.411514 18.576971 0.67568505
33.790634 18.511974 0.67179465
35.432835 18.571638 0.65165585
43.922764 18.597471 0.62841231
44.787487 18.457859 0.66284436
46.554245 18.547138 0.78567362
47.851913 18.340487 0.78465718
49.375969 18.581005 0.80976743
20.645061 18.707798 0.70241451
20.738514 18.776836 0.67042434
21.02607 18.63419 0.65648067
23.948236 18.731577 0.78199387
24.026411 18.756323 0.6651181
24.921188 18.885429 0.62195712
25.491198 18.65593 0.74479187
25.67234 18.753609 0.64661974
25.894958 18.673304 0.6835537
27.188267 18.756363 0.77967101
27.440636 18.730719 0.82516152
27.665985 18.718712 0.64797825
28.770905 18.841663 0.77353561
28.879242 18.810375 0.63980567
30.739626 18.849735 0.82564521
31.109867 18.847322 0.75122005
31.738909 18.747614 0.65306163
33.48156 18.620874 0.70230031
40.121159 18.649904 0.6731723
43.103088 18.890285 0.61681908
44.431183 18.832472 0.78379929
46.126877 18.669996 0.63885653
46.203552 18.837172 0.6472339
46.725445 18.850639 0.76129985
47.031384 18.810341 0.77224779
81.873329 18.895185 0.87471408
96.643089 18.869259 0.67460382
17.362375 19.145441 0.65015858
22.313097 19.188641 0.74727058
22.783569 19.00971 0.62740743
24.047588 18.904392 0.72551769
24.839809 18.938496 0.74486572
25.176497 19.006819 0.73657495
25.222519 19.043068 0.7517966
25.687576 19.112545 0.63718164
25.874146 19.030945 0.61699182
26.41684 19.146339 0.61147362
27.791395 18.911161 0.63431799
28.112646 19.036592 0.60174263
28.315184 19.01112 0.61433429
30.84819 18.929714 0.82733798
31.414032 19.021355 0.7141521
31.523554 19.034645 0.6454103
32.013371 19.131468 0.63273859
32.699387 19.025124 0.63819855
32.846489 19.091537 0.6982168
33.110596 18.976933 0.78954172
33.766857 18.928492 0.74933237
34.04422 19.190454 0.6130712
34.619205 19.11117 0.70118755
35.832348 19.041325 0.66339469
37.490387 19.197245 0.62659198
38.648346 19.008381 0.60117733
43.178879 19.000275 0.6186505
43.265041 19.032898 0.61796886
43.917347 18.984785 0.71248585
44.620537 19.114254 0.61898178
45.167629 19.167095 0.87145543
45.508381 18.957933 0.88366896
46.297546 19.121763 0.74768895
47.151562 18.906788 0.81495708
49.360691 19.156746 0.84051192
20.265923 19.339779 0.67504013
22.260799 19.44042 0.77384317
23.699154 19.486307 0.69628257
23.871441 19.264643 0.67576432
25.639309 19.274643 0.65810621
25.83329 19.227591 0.74578452
26.238697 19.330584 0.66555649
27.255947 19.251842 0.68163508
28.781721 19.282499 0.89057726
28.87575 19.305565 0.75929976
29.449495 19.456348 0.62143648
31.484325 19.472589 0.7293399
31.597252 19.460342 0.6723094
33.027725 19.241531 0.62080473
33.485077 19.364958 0.77688766
33.715912 19.325047 0.69567919
34.491161 19.353693 0.74230957
34.705688 19.204168 0.75040978
35.799286 19.450045 0.74725223
37.59877 19.204987 0.62388027
45.271633 19.40761 0.88082325
46.320393 19.434763 0.83487779
46.703178 19.268993 0.78411984
47.147858 19.386086 0.80523938
51.526592 19.394344 0.68910426
20.266508 19.797886 0.8501147
21.802933 19.741453 0.70784414
21.99465 19.543774 0.64783221
22.65621 19.672932 0.8030594
23.304638 19.505547 0.83316863
23.669664 19.5002 0.67756104
23.783772 19.542618 0.6880492
24.53661 19.630974 0.64223582
25.189884 19.553734 0.62508374
25.277168 19.589371 0.65730262
25.810753 19.779871 0.62926835
26.734781 19.558962 0.64185631
28.374367 19.673719 0.66913813
29.88727 19.757542 0.82511485
30.358759 19.635817 0.75457364
30.945166 19.560322 0.65611756
31.867008 19.578474 0.85453135
35.309483 19.668648 0.65476811
35.531521 19.778952 0.8275674
37.019764 19.670712 0.67603117
44.16684 19.500954 0.8468743
47.026291 19.563744 0.72153997
47.173611 19.649149 0.64098281
51.381809 19.602016 0.60065502
81.175011 19.797438 0.83144456
20.3741 19.893257 0.83095193
21.892626 19.847075 0.71139461
22.047094 19.861589 0.72471136
22.594952 19.849199 0.62794375
22.986399 20.070381 0.81323886
23.292999 20.009563 0.66702747
24.506367 19.927111 0.65320873
25.843735 19.833525 0.68817729
26.542728 20.038336 0.77719766
26.871967 19.949905 0.74842727
27.493958 19.826004 0.73150229
29.204546 20.044415 0.71347773
29.437946 19.988173 0.67337316
33.438469 20.024754 0.70288354
34.727207 19.979004 0.75506818
35.256241 20.005966 0.76569575
36.768608 19.993477 0.67950881
44.873295 19.891113 0.81804311
51.906887 19.804422 0.73076278
20.264147 20.306265 0.60592043
21.759819 20.286659 0.71215475
22.998598 20.202715 0.73715085
23.225166 20.271141 0.72874701
24.318748 20.28117 0.72608417
24.746611 20.302912 0.67189759
25.96335 20.137053 0.69053316
26.682129 20.138611 0.69074035
26.704653 20.156843 0.65033942
27.158789 20.152544 0.63185292
27.402596 20.273224 0.67097831
30.372162 20.352762 0.65907437
34.838928 20.117327 0.76252103
35.557602 20.232138 0.65411764
36.999931 20.340368 0.6541242
37.8741 20.195936 0.65379363
45.227562 20.225552 0.71302855
45.787476 20.296627 0.70131475
49.223999 20.184708 0.87229639
49.67403 20.303246 0.84459037
51.355759 20.383806 0.89757019
97.726357 20.193573 0.70707721
21.142653 20.554605 0.78957307
23.344666 20.443884 0.64407283
23.582237 20.474407 0.61367112
24.61577 20.51787 0.66639793
24.923267 20.550842 0.69821614
25.235994 20.50633 0.63197684
26.386232 20.51792 0.62657726
28.37948 20.441845 0.67342216
28.706255 20.454433 0.6313135
31.530228 20.500153 0.61358029
33.031597 20.633045 0.75492322
33.531441 20.679239 0.66803098
35.607346 20.417841 0.65025455
37.195038 20.497774 0.62589735
37.521576 20.413458 0.61729634
38.222713 20.497921 0.68049163
21.231724 20.734978 0.7165764
21.652653 20.715811 0.76155055
22.392855 20.81905 0.71266079
22.724514 20.857231 0.72309637
23.011177 20.878927 0.68471086
23.149031 20.746532 0.61000508
23.62804 20.860949 0.67371833
25.171528 20.819263 0.61054283
25.353607 20.930983 0.62102127
35.622631 20.742329 0.65512162
35.8377 20.87631 0.71955955
37.546276 20.896217 0.68082339
38.451248 20.702812 0.66292107
39.109596 20.907415 0.70955575
40.152561 20.853966 0.60268968
46.946674 20.732712 0.82421821
47.242249 20.727833 0.78440303
51.435398 20.871197 0.88458854
52.27216 20.780693 0.85718364
23.316057 21.095236 0.75400758
24.819185 21.018143 0.71845716
25.169815 21.148685 0.69187105
25.239437 21.147135 0.64507139
26.097179 21.091478 0.60762042
26.859453 21.128174 0.80364704
29.447477 21.09931 0.60062927
29.735771 21.174337 0.83594137
30.081932 21.284966 0.61615491
31.324062 21.105791 0.6371125
31.891268 21.007277 0.80238199
36.115009 21.020313 0.77901822
37.951729 21.121241 0.71268851
38.351528 21.118443 0.71251005
38.789433 21.229914 0.76024485
39.724648 21.221113 0.61508286
39.911308 21.152014 0.69699508
47.513279 21.049322 0.77276582
24.290367 21.54649 0.63843489
25.405952 21.385607 0.64087439
26.293898 21.562536 0.64529186
27.8466 21.40365 0.63401628
29.790125 21.583395 0.71331036
32.87785 21.460754 0.82918537
33.46479 21.556931 0.64495099
34.387318 21.486185 0.66415429
37.766586 21.382879 0.64700103
38.685432 21.38002 0.74474615
38.714382 21.427652 0.71482056
39.127537 21.541571 0.60006684
23.520353 21.619749 0.61964059
24.092251 21.848988 0.63684613
24.426256 21.776264 0.65163589
24.754065 21.819416 0.67819965
26.014631 21.81459 0.65784878
26.375797 21.62454 0.60501397
26.901335 21.744526 0.75746721
28.113258 21.81443 0.67295706
33.017281 21.606045 0.78697014
33.734047 21.773083 0.71552992
34.065456 21.735245 0.6386416
37.670868 21.849937 0.66305357
37.904369 21.840326 0.63405609
38.982086 21.616953 0.70959997
39.063847 21.67602 0.72200459
39.570221 21.871433 0.71464372
20.824551 22.113071 0.73411453
23.355589 22.174883 0.6397782
23.99398 22.114197 0.66927522
24.544514 22.018953 0.73053908
24.632092 22.117615 0.81172723
25.587971 21.902914 0.63469541
26.033611 22.071457 0.61537683
26.135551 22.146894 0.63895309
26.44482 22.035582 0.61048567
28.063251 21.913879 0.88571429
28.994328 21.984407 0.61375201
30.342129 21.94381 0.75210547
31.352652 22.152807 0.81862366
32.112034 22.17115 0.61054081
32.726849 22.021414 0.60378277
33.382946 21.947598 0.60027945
34.865662 22.08803 0.76878184
35.247349 21.902132 0.64706403
35.847897 21.930122 0.73471648
36.715183 22.069403 0.60975188
37.993687 21.951387 0.77784353
39.122269 22.008055 0.69978839
39.43821 22.114849 0.70496428
39.986519 22.040516 0.68537706
40.697483 22.123974 0.71552831
23.478678 22.283869 0.69412678
23.809378 22.324631 0.6669957
24.546684 22.307842 0.629004
28.005291 22.405155 0.60587889
32.226959 22.322006 0.78163797
34.076683 22.345432 0.70169771
35.984188 22.46154 0.77422327
40.508698 22.303001 0.70204127
49.588863 22.262918 0.72763985
23.677399 22.534212 0.77224082
23.709116 22.595995 0.68353152
25.946783 22.531513 0.67969084
26.391956 22.604671 0.68667537
26.514782 22.615393 0.6307258
27.439293 22.577425 0.64611965
28.069538 22.664745 0.73451352
28.596855 22.737799 0.73197746
31.784391 22.54545 0.63647294
35.657566 22.725719 0.71749693
35.789528 22.655857 0.74322331
39.754211 22.506611 0.68357718
24.549614 22.975107 0.69492596
24.636974 23.062191 0.64232743
28.160912 23.005219 0.76646668
29.344774 22.854046 0.81225795
29.509007 22.836678 0.76345927
33.37991 23.034466 0.69743228
43.219437 23.089777 0.84576011
43.892036 22.889406 0.83609909
44.419239 22.985317 0.71068609
45.156029 23.046806 0.73406762
46.74102 22.990692 0.71000463
24.365719 23.205158 0.66645807
24.781717 23.330471 0.70319885
28.737108 23.174746 0.86740929
42.579956 23.320475 0.65194649
42.979107 23.371017 0.78295892
43.683208 23.122604 0.65943295
44.020279 23.249985 0.79064977
44.380466 23.355417 0.82945275
45.194336 23.355597 0.89825565
46.127369 23.212486 0.80665779
24.441265 23.470018 0.61998516
25.267977 23.508091 0.84524
27.051836 23.606499 0.63105625
27.550203 23.592772 0.6433658
27.615452 23.665594 0.66427338
29.319944 23.441235 0.62425983
31.00758 23.452202 0.68198353
42.396 23.471905 0.76551497
42.894791 23.537413 0.88498682
24.341646 23.9711 0.8283177
24.984089 23.851896 0.63178223
25.828678 23.905476 0.68680561
28.184431 23.998064 0.60273087
44.087162 23.969173 0.87206191
44.141312 23.799147 0.84060192
44.920563 23.865709 0.71953976
28.455246 24.136208 0.62235326
30.486992 24.163383 0.69078588
30.604588 24.251978 0.76972055
32.643864 24.166523 0.8007915
33.015976 24.00169 0.7816236
34.047028 24.142153 0.75837415
36.128933 24.101233 0.61859524
43.439457 24.273462 0.79520869
43.798176 24.286608 0.84212351
44.219894 24.13866 0.84041178
45.686806 24.287561 0.64160299
25.249676 24.416525 0.66201103
25.706417 24.300764 0.60958338
28.182692 24.529053 0.67161095
28.449858 24.460571 0.65393525
32.348843 24.476206 0.86658353
43.883053 24.32588 0.879547
45.751472 24.336416 0.84392196
28.603271 24.632215 0.64286083
30.28195 24.677486 0.6496374
30.402235 24.648964 0.81635326
32.344814 24.669197 0.70275438
44.648285 24.666859 0.85904741
26.048803 24.950056 0.63555282
28.399052 24.999069 0.6064657
32.261089 25.063816 0.66863251
33.307926 24.931293 0.74120182
42.363556 24.960505 0.8131516
27.677397 25.346859 0.67147422
29.350006 25.386751 0.7233299
35.597317 25.267048 0.70926195
42.798225 25.39537 0.67501098
43.229572 25.276232 0.67722785
45.050655 25.348942 0.7863971
27.913076 25.512123 0.6153785
28.614288 25.686222 0.60127258
30.19006 25.593393 0.60759383
31.38983 25.792145 0.71728617
32.577698 25.757885 0.83156824
33.044788 25.655802 0.62157965
42.989052 25.625441 0.60545564
30.569775 25.880459 0.72706264
31.464874 25.836126 0.77656931
32.685337 25.845692 0.8108421
32.714893 25.842587 0.86094946
37.165886 25.818499 0.64185679
39.620758 25.988218 0.60727423
43.014122 25.868219 0.699889
44.976788 25.875456 0.86273921
31.770029 26.316921 0.60840458
31.829977 26.37229 0.60583186
33.020416 26.152863 0.72802436
42.070408 26.181921 0.60807759
42.341488 26.238224 0.81520593
45.438492 26.291039 0.83142185
29.411263 26.648268 0.60953385
29.898926 26.594454 0.71401489
30.828327 26.600231 0.6758098
30.946558 26.63213 0.7065419
31.454426 26.469734 0.66928947
31.855185 26.545483 0.60681868
34.618168 26.447966 0.63684511
36.823963 26.619778 0.70333076
36.954979 26.576124 0.76123273
40.040951 26.55077 0.78077197
29.627672 26.927923 0.60755157
31.533466 26.766075 0.64152849
34.276657 26.885679 0.67225856
35.433968 26.866848 0.64528912
36.634262 26.95347 0.63962513
39.032249 26.81386 0.73270154
40.124451 26.903833 0.65175319
40.369205 26.740002 0.62660694
40.780823 26.955162 0.74017823
42.128983 26.808067 0.79383922
43.393372 26.817032 0.80890298
29.699631 27.266945 0.64874697
35.732021 27.061815 0.70541596
37.355255 27.223755 0.67656231
39.734013 27.043186 0.60596359
30.974327 27.370296 0.86822557
31.606056 27.444983 0.78162199
33.132454 27.571733 0.87274283
35.430687 27.343962 0.73328501
35.824039 27.40016 0.60038108
36.629093 27.461803 0.64846659
37.418777 27.300192 0.6618799
39.565701 27.345072 0.68959725
40.40831 27.458609 0.6795674
40.536888 27.380894 0.72838646
41.082172 27.433165 0.68063539
45.214848 27.520683 0.89385223
34.349422 27.682476 0.69536734
36.619133 27.894737 0.72200447
37.933762 27.761517 0.65109646
38.199066 27.605423 0.7186774
41.962643 27.746439 0.79461718
31.621855 28.085052 0.67098397
36.748287 28.076574 0.68029565
37.060242 28.10376 0.80709296
37.862953 28.025227 0.89741182
39.023376 28.081505 0.76787931
40.218147 28.02202 0.78224164
40.846004 28.069813 0.82669479
41.648548 28.044939 0.69669974
30.127588 28.281502 0.76302606
31.530989 28.226871 0.71997827
32.367725 28.238729 0.84041351
32.444798 28.30822 0.86323023
36.092606 28.449396 0.7438035
38.015228 28.42305 0.62013745
38.553543 28.331894 0.78438556
38.771725 28.360945 0.60855877
39.143353 28.242195 0.65862507
39.323303 28.315495 0.86440641
39.850952 28.324814 0.61729681
40.114223 28.306871 0.8938418
30.841576 28.701679 0.84806824
33.783882 28.628208 0.64618814
35.952343 28.528881 0.62337148
36.03532 28.624918 0.78360605
38.233566 28.642881 0.63860834
39.401928 28.685207 0.61433786
39.837624 28.620089 0.72756404
40.092773 28.608416 0.68182105
42.324886 28.797274 0.78802556
36.703671 29.097679 0.82119167
39.365894 29.060354 0.88644063
40.048176 29.042707 0.70771235
42.614773 29.077065 0.73053169
33.789928 29.389088 0.66219425
36.668407 29.107777 0.76140833
37.782169 29.376841 0.76506954
37.812317 29.393648 0.83991063
39.643421 29.103401 0.75162065
40.124615 29.120857 0.68305302
40.472366 29.132795 0.84727854
40.555809 29.180016 0.75257003
41.612682 29.264832 0.8185727
31.22414 29.47957 0.74435544
31.67498 29.675385 0.83018535
35.654976 29.524895 0.82643265
38.152863 29.52269 0.76322675
38.847607 29.421373 0.78989911
39.719452 29.676851 0.67838216
40.702709 29.458517 0.74502403
30.843252 29.959595 0.69409645
32.680042 29.874788 0.65724701
32.777805 29.964905 0.658086
34.611366 29.887146 0.7813648
38.587543 29.865704 0.71680176
39.527435 29.925444 0.6429314
39.792542 29.997688 0.7757768
40.04464 29.777992 0.79373676
33.478657 30.019703 0.64846098
37.278065 30.000002 0.86932743
39.666 30.022457 0.79400086
34.418007 30.395109 0.61697215
38.922691 30.379198 0.86017376
33.211559 30.870693 0.70915794
33.441975 30.698246 0.65573347
34.71468 30.727238 0.66581392
34.899189 30.801535 0.7382744
35.871403 30.832178 0.74007624
38.406311 30.763508 0.6613974
33.274445 30.953495 0.71323478
35.951092 30.928642 0.7470209
36.233089 31.128004 0.67998785
38.654789 30.972975 0.8920095
39.081802 30.933165 0.65272272
37.047569 31.351238 0.89253914
37.593189 31.433512 0.72676098
38.245491 31.369823 0.83079147
38.521801 31.319942 0.64820719
34.898228 31.592869 0.66792679
35.273842 31.673178 0.75388497
37.463627 31.674683 0.76807547
39.573311 31.675547 0.84135664
36.349838 31.988514 0.86219901
37.137493 31.889303 0.6727584
37.916767 31.806871 0.67413974
35.17778 32.169083 0.63969642
34.41362 32.574818 0.77019733
35.524277 32.674587 0.83833337
35.980728 32.855907 0.88148791
33.679756 33.660652 0.7159248
35.062313 33.838921 0.64574438
35.583004 35.065258 0.79244876
57.74987 -2.2497084 0.90771139
89.883919 12.502595 0.91148698
87.451355 13.101234 0.97534019
81.646828 13.361274 0.90931129
88.221954 13.449478 0.95147508
88.871323 13.427821 0.98121756
82.248589 13.651843 0.94440001
84.279305 13.558486 0.98225564
88.358025 13.780162 0.93303078
75.471626 13.800031 0.9193849
77.326683 14.038256 0.97507155
88.366615 13.871899 1.0754288
88.572769 14.0926 0.96169966
69.367523 14.367528 0.9007535
74.592957 14.242943 0.96859235
77.56884 14.256438 0.98229504
77.892967 14.359722 1.0082606
81.261101 14.288792 0.97936749
83.503639 14.386275 0.94685715
88.416077 14.124777 0.9154768
90.712807 14.347543 1.094687
90.966209 14.13534 1.0091386
74.13942 14.422149 0.9681263
77.970337 14.533936 1.0182207
78.855774 14.555689 1.0009253
79.730324 14.529963 0.94207519
80.157845 14.697587 1.0753238
81.091492 14.661007 1.081569
81.590912 14.42238 0.96609765
82.545929 14.427266 0.91608775
84.323944 14.523193 0.94855475
84.846069 14.499386 0.97992736
70.544113 14.764462 0.91197515
71.585274 14.865123 0.97442466
73.171066 14.849664 0.94711727
75.561348 14.769773 0.95983261
75.826691 14.838699 1.0036036
78.631813 14.804484 1.0175878
79.930565 14.813393 1.0692712
83.550301 14.973554 1.1791606
67.607674 15.244813 0.96197963
68.880554 15.079304 0.96627331
69.056068 15.197285 0.97602892
71.878754 15.259724 1.0307455
79.967766 15.059752 0.98860538
81.726021 15.16846 1.0044208
88.692116 15.200611 1.0456133
62.686211 15.352208 0.91420645
62.722881 15.397305 0.91197479
64.63279 15.581718 0.93622011
66.770592 15.422744 0.99465054
68.743652 15.448673 0.96911091
69.467209 15.493149 1.023483
70.060944 15.500713 1.0086119
71.222641 15.462461 1.0221637
78.762848 15.33875 1.0182812
79.360474 15.493225 1.134403
80.236244 15.547252 0.94998205
80.432411 15.309606 1.1461307
88.718887 15.421915 1.0336709
88.840164 15.366953 0.97207856
90.792519 15.555341 1.0119555
66.564598 15.827608 0.90820134
66.812355 15.690444 0.94804561
67.51371 15.710445 0.94773829
68.86274 15.699102 1.0352993
69.287491 15.897536 0.94091773
71.478722 15.661995 1.0099777
73.574181 15.670703 1.0572755
74.283531 15.63852 1.0825137
80.165375 15.682651 1.0398532
82.354172 15.649279 1.1641513
83.529266 15.657658 1.1325214
87.765205 15.865253 1.0192077
87.940971 15.632644 1.1641579
88.679649 15.707051 1.1044335
88.891212 15.732099 1.1446338
96.747734 15.821093 1.1426649
57.884285 16.098928 0.9024421
60.694786 15.912776 0.90308076
63.848923 15.983953 0.98680305
68.961823 16.014076 1.0070895
69.978165 15.980906 1.0961528
82.381264 15.929305 1.1205106
82.74308 15.958183 1.1778706
85.319679 16.071589 0.97439009
87.832352 15.95078 1.135331
88.467491 15.92855 1.0610696
88.652161 15.97261 1.0812809
88.863556 16.064255 1.0333797
59.773331 16.437979 0.96584612
62.791294 16.285908 1.0399725
70.819969 16.300716 1.1610467
71.458847 16.202131 1.1540325
75.207817 16.240011 1.1873653
78.863701 16.273632 1.1900167
88.549553 16.267977 1.0818726
55.673622 16.798994 0.91835964
56.057415 16.771574 1.0004293
56.830139 16.627724 0.94981605
59.351788 16.506239 0.9580546
74.141525 16.720142 0.92950827
85.395981 16.558123 1.0895967
86.234276 16.688519 1.1881654
87.735931 16.592564 1.1742792
55.13789 16.89563 0.93136609
56.156437 16.803089 0.9573164
57.655033 17.073174 1.0063479
60.888477 17.080313 1.1015354
70.291695 16.847258 0.99770468
84.679726 16.864622 1.1501025
89.530998 17.055357 1.1489019
59.211819 17.316977 1.0231099
59.880066 17.333302 1.0614986
61.001652 17.123909 1.0968027
72.885094 17.329142 1.072961
81.156616 17.144194 1.1033299
83.562424 17.261854 0.95286822
85.212349 17.327524 1.0359743
86.442406 17.146206 1.1252055
53.987137 17.552446 0.90967983
55.883652 17.621925 0.91443181
58.824642 17.689102 1.0574826
72.798538 17.453457 1.0602975
55.733444 17.81802 0.94449151
56.246128 17.847193 1.020153
58.990276 17.779974 0.9959752
41.827477 18.002691 0.91542828
45.518887 18.192003 0.94059747
46.10088 18.105732 0.94156194
46.296181 18.238564 0.98889571
56.67387 18.082407 1.1719422
51.332245 18.577717 0.97753263
54.372662 18.571535 1.0467255
56.07571 18.449253 1.1082691
47.851273 18.747677 0.96285868
49.319466 18.87252 1.0929612
49.534206 18.894167 1.0548253
50.389027 18.652746 0.92974102
50.524654 18.650749 0.95384884
50.765999 18.730427 1.1011664
51.364246 18.686131 1.0883054
51.668076 18.60317 0.94037569
46.820572 18.912409 0.94519126
47.94083 18.916248 0.99302375
48.20681 19.094074 1.031351
50.478695 18.918169 1.1656322
52.690006 19.012232 1.0781202
54.893093 19.099298 1.0363084
46.521114 19.298494 1.0560024
46.857769 19.262125 0.92938465
47.178261 19.399797 1.0409002
48.365234 19.456999 1.0224221
48.804573 19.397175 1.1152124
52.343864 19.488365 1.0894326
53.099503 19.368973 1.1736462
26.797144 19.799355 0.90949792
29.402832 19.794788 0.93728578
43.756184 19.750593 0.91424072
44.781002 19.750486 0.92591959
46.715134 19.681616 0.9096337
47.382683 19.792721 1.1067176
51.158253 19.726866 0.96167731
51.842033 19.64884 0.91610014
52.014145 19.740244 1.1887137
45.410561 19.904352 0.92474449
47.565056 19.916855 1.007308
48.179893 20.013048 0.9777633
49.216496 20.071035 1.1759684
50.137001 19.827106 1.1458359
49.106247 20.381878 1.0717695
49.416996 20.242916 1.0895329
49.724026 20.266033 0.98901767
50.426476 20.167189 1.0755213
47.257416 20.595537 1.0107317
50.718678 20.415304 1.1591551
29.286329 20.999876 0.92451543
47.073822 20.81806 0.96174389
48.248558 20.808834 1.0545142
48.348385 20.931168 1.0202011
31.480822 22.650909 0.9377619
28.982626 23.025824 0.92095876
30.283274 22.92452 0.93541062
47.012791 23.086695 0.95084876
25.204184 23.350994 0.93781042
27.354969 23.21755 0.94681692
28.971518 23.230495 1.1771709
44.269958 23.384081 1.1661119
44.882019 23.297598 1.1192553
46.689304 23.291454 0.98975265
46.904861 23.15575 1.0349358
50.926991 23.378046 1.0225865
29.149174 23.445866 1.0115204
43.593067 23.645256 0.97302324
45.143059 23.424305 1.1888082
46.679688 23.425964 1.0784658
24.929157 23.827719 0.97248846
27.220636 23.775284 1.1105468
43.864315 23.786722 1.0638049
44.115334 23.900694 0.95080483
47.233398 23.846687 1.1747577
48.641495 23.746262 1.0111724
27.102247 24.000414 0.95341563
32.259274 24.09133 1.0311741
43.917801 24.160244 1.1517802
44.181557 24.095041 0.96467733
45.725075 24.23197 0.98592401
47.613182 24.050026 1.1273766
43.936314 24.543371 1.09078
44.524376 24.431307 0.9501909
45.628407 24.350071 1.1806567
46.354279 24.441217 0.98990279
44.039501 24.65867 1.039085
43.346966 25.146629 1.0045719
44.682259 25.414898 1.171119
45.15464 25.43314 1.1380624
47.303715 25.495632 1.1491286
42.567696 25.720354 0.95814121
43.521011 25.501814 1.0174209
47.539707 25.614992 1.0604608
42.710682 25.810612 0.953493
43.631165 26.213608 0.96450645
31.887096 26.452862 1.067072
29.019188 26.773399 0.92422462
42.336643 26.891365 0.98718691
40.956898 27.145571 1.1470084
42.703773 27.280687 1.0345631
45.496071 27.144609 1.0336168
42.695671 27.309496 1.0192281
42.182648 27.810123 1.0692483
42.38847 27.866493 1.0016695
40.778366 28.104286 0.90261632
42.536316 27.918213 0.99286622
42.822414 27.92071 1.1090285
38.744785 28.445295 0.9984346
41.488018 28.344927 1.112172
40.250778 28.71998 0.92316324
41.280823 28.750048 0.97182113
42.748249 28.779238 1.1373082
43.529659 28.604849 1.1288664
39.860054 28.915035 1.0062883
41.306011 28.86117 0.94933283
42.403576 28.973713 0.91637993
37.891644 29.278164 0.98687214
31.629776 29.630186 0.93926698
37.591518 29.43268 1.0765433
38.943775 29.531778 0.90851486
40.567234 29.676765 1.0023944
40.937038 29.578245 0.90469486
30.746832 29.735683 1.0172663
40.116028 29.835567 0.97784531
40.696712 29.81094 1.0229666
41.237247 29.862713 1.1117378
37.38422 30.18045 1.0641296
39.77425 30.127981 1.0137768
40.314545 30.238657 1.0561967
40.633049 30.128523 1.0599107
38.985771 30.415964 0.93290657
40.02359 30.352497 1.0997344
40.26194 30.37854 0.90981257
40.5984 30.514641 0.97799206
39.08667 30.899099 1.0713626
40.736599 30.746513 1.054776
40.965233 30.610071 1.1283323
41.808086 30.749754 1.1738926
42.031551 30.721313 1.1795127
38.15575 31.177195 1.0201148
39.121052 30.92223 1.1392244
40.932125 30.976578 1.053491
39.560345 31.331459 1.068998
39.609928 31.360611 1.077343
38.58326 31.66724 1.1817132
39.232742 31.688803 1.0683526
39.314861 31.778078 1.1005906
39.694206 31.782974 0.965114
37.00227 31.950722 1.0884175
37.63982 32.130459 1.0814993
36.122314 32.904247 1.0298835
37.203907 32.985947 1.0427742
41.929626 32.80122 1.1384022
42.065651 32.826633 1.0569261
37.258892 33.058289 0.96484429
38.322861 33.294731 1.0338923
41.098549 34.369991 1.0791091
39.570019 35.476089 1.1833857
91.108437 14.733886 1.2069546
88.85952 15.322624 1.2678809
89.10498 15.443704 1.2562429
92.840919 15.565913 1.2256588
88.068932 15.68279 1.2970248
88.747421 15.788 1.3044024
92.399284 15.83494 1.354853
96.677376 15.898581 1.3992902
82.410248 16.006374 1.2332373
87.856453 15.927794 1.3184798
88.691399 15.971202 1.316249
81.101364 16.233107 1.2337881
82.175575 16.359987 1.2756082
87.038399 16.257208 1.3288506
85.223701 16.553806 1.2407616
86.433273 16.773146 1.4293721
87.161926 16.725197 1.3915452
88.103142 16.553032 1.3628924
82.910324 16.899309 1.2467099
85.107048 16.877962 1.2682381
86.841408 17.044567 1.3159419
78.162148 17.350199 1.2537215
80.655502 17.167948 1.3870164
80.718803 17.104603 1.3231697
81.431885 17.138159 1.3936561
82.601372 17.373055 1.2335318
86.387978 17.171621 1.3492479
82.841797 17.510424 1.3219162
85.250381 17.513683 1.3568356
86.309258 17.400452 1.3104323
86.47393 17.438585 1.2690707
96.021172 17.496092 1.2202448
80.981651 17.973513 1.4900478
84.667229 17.777554 1.4718617
87.981079 17.886642 1.4042201
85.757034 18.134771 1.4409399
87.504868 18.196495 1.4878502
89.014687 18.592772 1.4504544
89.461098 18.403008 1.4783751
90.322548 18.481693 1.2424557
89.586563 18.600296 1.4387308
89.563217 19.128462 1.4559493
71.471336 19.468407 1.4494038
95.46875 19.786121 1.4690906
51.057362 20.048046 1.2750888
52.205799 20.001682 1.338847
91.174072 19.903875 1.3924239
48.703533 20.246883 1.3115191
49.605564 20.322571 1.2862438
49.546047 20.697029 1.2622399
50.560974 20.447426 1.255226
52.408878 20.617434 1.331654
53.95451 20.46689 1.2117847
47.099586 20.964581 1.2646468
50.877888 20.914251 1.20886
52.227345 20.932552 1.3607112
48.723526 21.454866 1.3819485
50.489902 21.542711 1.2485855
52.26046 21.716686 1.4269694
49.622856 22.175684 1.3791113
44.928753 23.270897 1.2428833
47.28368 23.391516 1.3363171
45.523087 23.534615 1.2786295
45.659576 23.43807 1.348978
46.771088 23.42416 1.3522953
47.339294 23.664827 1.201068
47.62606 23.46806 1.4184042
44.887798 24.332306 1.2347635
45.571701 24.315563 1.3068789
45.725567 24.449711 1.3101724
44.717819 24.675531 1.3655754
45.36253 24.833973 1.3833613
45.865063 24.664406 1.2829239
46.313324 24.638004 1.4270988
47.684879 25.152952 1.4816164
45.184574 25.483919 1.4387743
47.180099 25.247454 1.2585354
45.266003 25.528437 1.401525
47.076923 25.660217 1.4101539
47.297813 25.760834 1.4367868
45.265274 26.018221 1.3924516
45.498737 26.075699 1.2247319
45.378166 26.124454 1.2920946
45.609631 26.315439 1.4825875
44.555241 27.128868 1.3443981
46.199867 27.172749 1.4975774
46.24271 27.155798 1.4873918
43.983871 27.528837 1.2627269
42.322403 27.897007 1.2114855
45.001816 27.784096 1.4384487
43.448273 27.91884 1.3190185
43.675232 27.984564 1.296515
44.287743 28.381306 1.3943629
42.088253 28.582106 1.2180736
44.009666 28.591043 1.2715368
42.957226 29.081175 1.441604
36.642494 29.303728 1.3034736
43.304146 29.354517 1.2762403
43.71838 29.231054 1.3761132
43.863148 29.32482 1.4498023
40.029945 29.679325 1.4049197
41.866169 29.64393 1.2993841
42.026707 29.69253 1.2908682
40.626865 29.806522 1.3414662
39.326069 30.274721 1.2219263
40.634644 30.11342 1.2014142
40.076439 30.426472 1.2795224
40.254799 30.434563 1.389828
43.011005 30.500879 1.3497127
38.801743 30.898621 1.2918681
40.662376 30.712086 1.2951636
42.954636 30.743902 1.3939377
43.856548 30.867527 1.3906462
44.339291 30.606071 1.2598234
38.847515 30.984917 1.2369952
41.878071 30.92502 1.4904799
42.014229 31.004786 1.4598681
42.798382 31.085115 1.4861358
43.313354 31.040106 1.378925
43.699554 30.909019 1.2231524
42.24926 31.200558 1.2036154
42.554821 31.410961 1.2325799
43.36684 31.223644 1.4911573
43.57412 31.366602 1.4880153
40.823582 31.773054 1.4963697
39.195984 31.947247 1.2653766
38.453999 32.360107 1.4065187
38.549007 32.414707 1.3841395
41.661633 32.456554 1.4076593
42.029121 32.669765 1.3135427
41.193455 32.704655 1.4316057
41.903072 32.896717 1.422556
42.261154 32.910034 1.2872049
42.347031 32.747677 1.2412518
36.771599 33.03841 1.3190712
39.153759 33.138023 1.4129761
40.140194 33.201447 1.4287457
41.804264 33.108746 1.4351617
37.871712 33.520241 1.3570216
40.084347 33.458065 1.3923354
40.34137 33.528992 1.4770354
38.163872 34.429432 1.3424752
36.449028 34.717617 1.2864878
37.653763 34.606133 1.2567739
38.289772 34.621273 1.329283
37.62278 35.022766 1.4458153
39.758831 34.952011 1.4288801
37.54034 35.116646 1.3980272
90.449776 17.707956 1.5932825
88.161049 18.182138 1.5827272
89.188217 18.290701 1.5379343
86.727654 18.494003 1.5710037
88.97448 18.430864 1.6571273
89.20266 18.41641 1.6201763
