# .PCD v0.7 - Point Cloud Data file format
VERSION 0.7
FIELDS x y z
SIZE 4 4 4
TYPE F F F
COUNT 1 1 1
WIDTH 1612
HEIGHT 1
VIEWPOINT 0 0 0 1 0 0 0
POINTS 1612
DATA ascii
60.360531 24.962864 3.6597056
61.722466 25.018276 3.6974165
61.968048 25.056923 3.6820035
63.924385 24.930126 3.884505
69.270905 25.010441 3.7981296
69.520462 24.908203 3.7615883
70.4534 25.126808 3.7891722
70.9431 25.09734 3.8072405
72.963707 25.009735 3.7771261
74.386612 25.101227 3.8883514
74.656738 25.118546 3.7765036
76.032509 25.096777 3.665488
76.60833 25.15205 3.7307792
78.240616 25.001562 3.8433001
82.35836 24.98559 3.7412837
83.036026 25.078705 3.6156955
83.438759 24.905737 3.6457582
83.940407 25.127718 3.7849138
84.023872 25.07284 3.8832393
84.935402 25.041538 3.7517881
85.635368 25.042536 3.7390835
86.658447 25.004461 3.7509201
86.828751 24.985826 3.8143091
87.205032 25.018888 3.85447
87.822182 25.09815 3.8805716
87.970055 24.930668 3.7219465
88.419853 25.103235 3.8740144
88.564758 25.030045 3.7561181
89.05085 25.157402 3.7890151
89.256226 24.996864 3.7573462
89.605789 25.076443 3.7789822
89.948853 24.931089 3.8270338
90.209015 24.995283 3.8448131
90.387955 24.936386 3.7162769
90.917793 24.923521 3.8139229
91.670425 25.038105 3.8339143
92.533028 24.966648 3.7278886
92.812813 25.001602 3.8036187
93.396378 25.029428 3.7146285
93.817772 25.027266 3.712702
94.372345 24.933462 3.6643305
94.654861 25.136572 3.7429962
96.111084 24.960176 3.8761079
97.0961 25.186337 3.8173323
97.32476 24.964653 3.8328812
97.691399 25.019882 3.878176
98.013351 25.07584 3.7362182
98.534729 25.085028 3.8351994
100.03354 25.133823 3.7937021
100.95193 25.007629 3.7793982
105.85083 24.930376 3.8788288
105.98051 24.929928 3.8203559
106.21072 25.196287 3.8429017
107.58134 25.041889 3.7732162
107.86339 25.134867 3.836797
110.08829 24.951628 3.7118788
111.27907 25.142191 3.7281809
117.58958 25.094973 3.7053561
118.93666 25.030872 3.7180281
60.365417 25.317427 3.6948292
61.790718 25.385738 3.7032299
61.974808 25.281206 3.8327935
70.956367 25.281301 3.8768616
71.576614 25.456432 3.8666861
72.47538 25.379322 3.7843311
73.641754 25.49239 3.8541682
74.827988 25.416367 3.7756557
76.637939 25.254885 3.8772845
76.86528 25.327658 3.7961066
78.050636 25.367092 3.8341689
83.67186 25.200474 3.8927803
84.344803 25.465086 3.8668516
84.762489 25.323658 3.8117077
85.097 25.280128 3.8478546
85.294151 25.388781 3.8059032
85.898346 25.234169 3.7597933
87.834274 25.211248 3.7098758
88.671158 25.361954 3.8403599
89.258736 25.378098 3.8732021
89.591919 25.376589 3.8391621
89.813301 25.35696 3.7535944
91.601631 25.267487 3.667769
91.866325 25.240992 3.8820314
92.204742 25.310547 3.7769456
92.608727 25.40563 3.7311103
94.541389 25.402586 3.6484425
94.879974 25.450491 3.7135141
95.825577 25.447954 3.7896962
97.381989 25.342094 3.7420459
97.745361 25.396486 3.8154588
97.895912 25.369717 3.8222611
98.348328 25.290565 3.7993193
98.77317 25.39649 3.8243313
99.808907 25.368126 3.8336575
99.969604 25.389204 3.7848558
100.742 25.326586 3.8435864
100.90711 25.356287 3.7808158
103.0735 25.428032 3.829809
106.25908 25.206682 3.8316834
107.98318 25.258137 3.6283367
59.636929 25.527195 3.6079211
60.055676 25.744015 3.6248157
61.682632 25.634235 3.7838101
71.603081 25.515673 3.8506463
71.795975 25.576715 3.8492756
72.986847 25.527164 3.8539438
74.184753 25.783043 3.8223679
82.402504 25.705475 3.8045604
85.43029 25.522491 3.8229716
86.238724 25.654716 3.8843431
86.850006 25.514826 3.8179827
87.091103 25.625313 3.7886965
87.483711 25.656403 3.7907741
88.15139 25.618746 3.8022437
88.654709 25.718245 3.7989607
89.212494 25.717281 3.7473693
89.95591 25.567848 3.6534271
90.154915 25.695377 3.7845969
90.51078 25.710638 3.7628536
91.705284 25.578341 3.650182
91.930397 25.733137 3.6783431
92.340271 25.603144 3.843159
92.532257 25.569931 3.7428262
92.843864 25.549559 3.7911584
93.179993 25.731716 3.6176057
93.329727 25.572659 3.6436069
93.761696 25.765388 3.7100842
93.951065 25.642876 3.7121582
94.680016 25.561762 3.7241452
94.962433 25.746786 3.7929921
95.221306 25.691105 3.6900177
96.424065 25.704735 3.7788322
96.671021 25.742052 3.8546116
97.126022 25.645899 3.7467709
98.284676 25.745695 3.7171874
98.863602 25.652012 3.8374758
99.440781 25.721422 3.7929215
100.90355 25.662563 3.8392086
104.33534 25.677952 3.7967143
105.25964 25.604071 3.8559158
106.1125 25.547922 3.8177326
106.32449 25.625349 3.7689381
109.92641 25.787844 3.8377721
116.59308 25.594513 3.6885409
116.8454 25.667929 3.7664278
117.51721 25.786097 3.6833456
69.39045 25.887669 3.8309278
73.256454 26.038269 3.8459315
74.444664 25.800449 3.8253868
88.410828 25.958969 3.7586529
89.184799 25.821873 3.7470701
89.919373 25.884279 3.6934993
90.133453 25.895918 3.8208327
90.466949 25.953783 3.8128417
91.289871 26.034821 3.7423396
91.653847 26.075346 3.7330787
92.565498 25.975924 3.6130171
93.686447 25.880219 3.8163598
93.9394 25.834385 3.7962008
94.226227 25.963272 3.6967728
94.774681 25.919842 3.820308
94.93042 25.842716 3.7172673
95.234161 26.007227 3.6845868
95.70195 26.025183 3.6296222
96.122345 25.830877 3.6594381
98.218781 25.868984 3.896101
100.33987 25.968277 3.8405333
102.46517 25.941517 3.8898184
102.96363 26.021776 3.8300157
104.77962 25.871061 3.8899438
106.08199 25.816452 3.7307725
109.56322 25.807278 3.8193095
109.90652 26.062561 3.8031485
115.04025 26.008459 3.7034359
117.67821 26.018446 3.6881213
118.40636 25.939861 3.7964952
60.142925 26.187006 3.6003261
61.965073 26.247131 3.7953286
62.211658 26.253422 3.843847
73.433594 26.38777 3.7835083
75.377769 26.342642 3.8787727
76.162247 26.307697 3.8896618
77.071022 26.253719 3.8199918
83.603943 26.177691 3.8834593
85.025749 26.28548 3.8362374
87.270218 26.268698 3.8523965
88.003189 26.297197 3.6225612
88.560913 26.170507 3.6523895
88.820808 26.257559 3.7116408
89.107391 26.187971 3.8955505
89.851997 26.287039 3.8053772
90.479439 26.146107 3.8379052
90.742653 26.273825 3.8202002
91.044533 26.331882 3.8349071
91.43943 26.324543 3.6557527
91.534203 26.384281 3.7832997
91.906799 26.276152 3.715847
92.646774 26.296799 3.7904797
92.829887 26.183401 3.8117397
93.843315 26.315542 3.6751013
95.007019 26.120848 3.876668
95.542038 26.305552 3.835325
96.158264 26.357018 3.8420119
97.015106 26.24999 3.8861949
98.432198 26.195675 3.8572316
99.57196 26.273205 3.8353431
101.09181 26.258078 3.8767507
101.10962 26.269936 3.8864026
103.84717 26.363976 3.8479531
105.14457 26.293455 3.7832329
105.65617 26.29851 3.8318059
106.66193 26.201084 3.773576
109.61748 26.129042 3.771919
113.50272 26.176914 3.8078518
117.52599 26.384897 3.7208786
118.08372 26.156229 3.6479869
73.463844 26.409576 3.8207467
73.566147 26.445654 3.8574488
74.059204 26.42194 3.7821131
75.069687 26.640764 3.8489461
89.9245 26.538305 3.7421827
90.150169 26.597759 3.7775083
90.469856 26.537338 3.6833076
90.632553 26.572983 3.7901018
91.038574 26.543524 3.7661805
91.357063 26.45533 3.7874675
91.679649 26.53467 3.6944726
92.054016 26.512947 3.8361528
92.579132 26.580149 3.8252082
92.805847 26.552944 3.8042951
93.109787 26.566477 3.7600706
93.421097 26.647232 3.6848278
93.828125 26.651302 3.662425
94.189079 26.475885 3.8465173
94.285355 26.596519 3.8478403
95.647057 26.429306 3.6357863
95.92524 26.625673 3.7113879
96.415222 26.542044 3.6691246
97.55011 26.5874 3.8226812
98.57354 26.500193 3.835017
100.02609 26.524889 3.827477
100.32567 26.474207 3.8411596
100.78808 26.507177 3.8769276
101.01654 26.512579 3.8761132
101.48807 26.499916 3.8664942
101.92871 26.510469 3.8621125
103.25779 26.535307 3.8317347
104.79327 26.417944 3.794822
106.52645 26.469486 3.842957
106.91541 26.538334 3.8068473
110.28828 26.68808 3.8567426
113.31821 26.425682 3.7634389
117.49014 26.400406 3.7169936
117.60083 26.427126 3.7639592
61.366554 26.71797 3.8189852
73.750755 26.879633 3.8631439
76.322098 26.806887 3.8678689
91.164436 26.871126 3.7590032
92.571159 26.801857 3.7421441
92.935608 26.988777 3.8800492
93.499237 26.952721 3.8408449
93.860237 26.822739 3.6594505
93.946121 26.861475 3.7848778
95.18325 26.925377 3.868829
95.594704 26.814419 3.8554316
100.9854 26.861326 3.869411
104.75393 26.748499 3.8595724
105.74509 26.724777 3.7707884
106.81313 26.879358 3.8365128
108.48832 26.829735 3.8292816
113.47065 26.712309 3.6499085
116.09138 26.857073 3.6498153
116.22655 26.885328 3.7181273
73.739876 27.05969 3.7838273
73.877716 27.088593 3.898104
74.516518 27.177574 3.8813765
74.993034 27.015244 3.8273592
79.059013 27.102739 3.8244846
79.344719 27.141874 3.8785284
91.954391 27.027035 3.823281
93.504021 27.042528 3.8268144
93.69986 27.019806 3.6191835
94.125153 27.056461 3.6519105
94.330978 27.129269 3.7369311
94.759979 27.046045 3.8166928
94.854523 27.134329 3.7423992
102.15245 27.07719 3.8290846
102.51656 27.08577 3.8602848
104.3557 27.151899 3.8660614
105.23744 27.181622 3.7981107
106.41409 27.284063 3.8538809
113.8074 27.293165 3.8930106
116.81992 27.14925 3.6377881
62.297729 27.351212 3.8307118
73.800484 27.447643 3.797179
78.500687 27.521597 3.88902
78.860481 27.430567 3.8918648
92.362915 27.584852 3.7934694
92.592979 27.518412 3.7355967
92.856232 27.540932 3.6782944
94.869041 27.343716 3.8414528
103.04058 27.435148 3.8718183
103.64381 27.307442 3.8809066
104.36919 27.499599 3.8202388
104.67907 27.38158 3.8185229
105.14215 27.390015 3.7911384
105.47916 27.4452 3.7997749
106.4262 27.509399 3.8597355
115.12437 27.54413 3.7517343
116.19057 27.426743 3.8420432
116.99178 27.457136 3.7050831
117.05103 27.455885 3.6334732
93.137207 27.735813 3.7451429
93.475395 27.647326 3.6586015
102.78136 27.754683 3.8298924
103.08818 27.760536 3.7278197
103.82919 27.887133 3.823349
104.83289 27.813183 3.7506928
105.10494 27.686678 3.8381922
112.628 27.766357 3.8914554
116.07538 27.769428 3.7035446
116.46127 27.823692 3.752995
102.8308 28.058495 3.7209797
102.95621 28.131912 3.826153
103.74539 28.117981 3.7600708
103.86026 28.028391 3.8897686
104.60434 28.048443 3.822448
104.93814 28.061577 3.8805537
111.27571 28.014025 3.8070209
112.10194 28.136406 3.8184757
101.59576 28.30611 3.800957
101.70631 28.297163 3.8132627
103.66862 28.280762 3.7903576
104.08182 28.265848 3.8729243
104.2553 28.309971 3.8257232
104.58719 28.359161 3.7948995
105.32845 28.304522 3.8657246
105.80488 28.232872 3.8801193
105.90879 28.257339 3.899029
106.35563 28.467672 3.8925996
111.64365 28.498569 3.8221433
102.7763 28.572458 3.7152259
104.39819 28.57728 3.7599752
113.60429 28.626013 3.7323282
113.7914 28.76445 3.7467446
92.711082 28.964849 3.635565
112.60768 28.910303 3.7736645
115.37984 28.886656 3.7776351
120.22437 28.971926 3.8880179
109.6944 29.252905 3.8831499
115.1974 29.266071 3.775625
113.91132 29.492584 3.827848
114.69543 29.546211 3.8470728
118.30066 29.673731 3.8785055
113.34367 29.905146 3.8223381
115.62183 29.756502 3.7603221
114.70245 30.185335 3.8737748
115.02395 30.076126 3.8089643
117.05853 30.11603 3.8792562
111.55877 30.857723 3.892386
113.02048 30.718365 3.76073
115.08652 30.662914 3.7861533
113.15971 31.190483 3.8484459
113.52235 31.0812 3.7871294
114.25191 30.967751 3.7942061
113.20505 31.211426 3.8097961
114.09754 31.439236 3.7594352
114.78339 31.313196 3.7672436
105.22447 34.915932 3.657011
53.843704 43.306564 3.6898627
54.087475 43.288651 3.7465324
89.32917 20.788485 3.9580331
93.956314 21.896267 3.9942515
92.991188 22.061308 3.9810994
95.111549 22.026598 3.9091425
95.873871 22.037783 3.920881
96.508179 21.930803 4.0282855
96.740234 22.0555 4.0942826
84.6306 22.397205 3.9168851
98.272041 22.46566 3.9886889
98.934227 22.456289 3.9139395
102.7543 22.394119 4.0288553
95.880745 22.66083 3.9230514
99.303101 22.757511 3.9208703
100.45925 22.698118 4.0428677
123.51182 22.650255 3.9465501
90.094299 22.946737 4.0705261
93.614868 22.903046 4.0644836
94.232262 23.099936 3.9364891
95.964615 22.824184 3.9540498
98.422012 22.925457 3.974257
99.317696 22.973442 3.9016063
100.22459 22.875845 3.9600644
86.900536 23.187044 3.9131713
89.534203 23.165096 3.9480047
94.557289 23.273382 3.923218
95.095909 23.106611 4.0192785
95.576576 23.386065 3.9057822
95.932373 23.317545 3.9662502
98.15937 23.370142 3.9294512
98.796074 23.192047 3.9320593
99.525719 23.270807 3.9181514
100.12955 23.238132 4.1815286
100.28534 23.23262 3.9841433
101.04208 23.342545 4.0521488
81.634506 23.411203 3.902966
83.203552 23.606318 3.9086597
88.797127 23.651838 3.9197047
90.148216 23.566065 4.0587177
93.293022 23.468237 4.003458
94.230911 23.557602 3.9465137
94.653976 23.422771 3.9440715
95.354485 23.584017 3.9531615
95.583298 23.405405 3.9353218
95.803223 23.592613 3.9146564
96.570374 23.553679 3.941757
96.619339 23.586754 3.927434
97.108765 23.592699 4.0093045
99.138184 23.690794 3.9642336
99.800774 23.698689 4.0076604
102.29756 23.416557 3.9081397
103.18375 23.600859 3.9135983
81.689743 23.80595 3.9051824
84.585152 23.870213 3.9057143
85.115891 23.85741 3.9511313
85.45089 23.93092 3.9552636
86.009583 23.799854 3.9507236
86.13208 23.972633 3.9982786
88.272415 23.824511 3.9031625
88.888565 23.820099 4.0194488
91.374092 23.700064 4.1419196
93.353203 23.784655 4.0340858
94.440872 23.70916 3.9623914
94.830856 23.906054 3.9281421
95.220573 23.948553 3.9881978
96.089798 23.737251 3.9789109
97.321091 23.892157 3.9793568
99.185913 23.748123 4.0134697
99.354469 23.939741 3.9422319
99.974319 23.704229 3.9155564
101.93884 23.821795 3.9501266
102.02323 23.861694 3.9712622
106.4742 23.864069 3.9414473
61.704697 24.174362 3.9978282
70.8554 24.145756 3.9171476
83.175301 24.051441 3.9601583
84.090927 24.120308 3.9418697
84.567535 24.280102 3.9403319
85.332115 24.296803 4.0930376
85.553413 24.275835 3.9497766
86.583046 24.179096 3.9464488
87.451309 24.171755 4.0893488
87.754356 24.110998 3.9113598
87.967041 24.167103 3.9973528
92.837044 24.054337 3.9054103
93.24614 24.251034 3.9531291
93.858948 24.145161 3.911067
94.093414 24.117092 3.9253466
94.27346 24.007349 3.9369352
94.916046 24.158674 3.977432
95.526634 24.246725 3.9028857
96.251663 24.010944 3.9241238
97.344017 24.137306 3.9317393
97.654564 24.130167 3.904227
98.025864 24.235989 3.9432263
98.546883 24.291466 3.9380543
99.274757 24.095726 4.0246735
99.805977 24.167551 3.9030914
69.56105 24.568825 3.9496381
81.834373 24.451862 3.9806116
82.490288 24.364796 4.016346
82.619843 24.408302 3.9678819
83.021919 24.475533 3.9414628
83.241333 24.494051 3.9364452
83.497093 24.463438 3.9189758
84.211075 24.510193 3.9378104
84.330353 24.32057 3.9068801
85.096001 24.589916 3.9058352
85.324135 24.351046 4.0233045
85.658752 24.447832 3.9881966
85.824661 24.545788 3.9754553
86.185707 24.387827 4.0793071
86.657234 24.48407 3.9135828
86.954163 24.598501 4.039412
87.06678 24.548403 4.029604
87.511055 24.476444 4.0252128
89.399246 24.47893 4.070241
89.58017 24.502924 4.0043349
89.701073 24.497698 3.9645967
90.203186 24.373323 4.0013313
90.484528 24.576353 3.958889
90.958656 24.360971 3.9028995
92.018417 24.534355 3.9019639
92.108818 24.570698 3.9492168
92.93409 24.334478 4.0383825
93.127663 24.390097 3.9905503
93.536407 24.415186 3.9420786
93.729446 24.387823 3.9748712
95.160751 24.433281 4.1625271
95.885246 24.416931 3.9742095
96.711891 24.427877 3.9758267
97.115944 24.497885 4.0924439
97.287056 24.572092 3.9468124
98.24884 24.441038 3.9937713
100.33837 24.424925 3.9824255
100.87586 24.442421 4.1549468
101.87612 24.49678 3.9275618
105.18797 24.331396 3.9572306
108.85252 24.393396 4.0487952
108.90748 24.398039 4.0849457
64.337662 24.705957 4.0530605
71.709442 24.700188 3.9313622
82.747475 24.667301 4.0627575
84.167015 24.742287 3.9345956
84.329086 24.839298 3.9355903
84.6679 24.696381 3.9664578
85.028587 24.751684 3.9827054
85.376556 24.764582 3.9816413
85.948822 24.684837 3.9689953
86.157578 24.734974 3.9262288
86.471077 24.708961 4.0795484
86.817261 24.800417 3.93839
87.230286 24.847332 4.0260334
87.809547 24.773996 4.0424161
88.381508 24.704157 4.0019121
88.563972 24.884769 4.0511808
89.151924 24.875818 4.0786538
89.855331 24.695038 4.0254421
90.181625 24.825727 4.133028
90.9888 24.751152 3.9283481
91.724602 24.693001 3.97826
92.849976 24.614799 3.9127951
93.51619 24.891279 3.9141841
94.044876 24.639414 4.1287346
94.698654 24.839716 4.0454483
95.811493 24.63839 3.9123793
96.87516 24.630041 3.994849
96.970116 24.859308 3.9008372
97.267479 24.742727 3.9607427
97.948425 24.80122 3.9497511
98.305519 24.854303 3.912461
98.573448 24.77816 3.9960318
98.844727 24.749716 3.9720702
99.172485 24.614105 3.989392
99.352257 24.727457 3.9278851
100.49673 24.800703 4.0125566
100.61072 24.798166 3.9694035
100.98802 24.813934 3.9284475
101.60294 24.667509 3.9835675
101.96904 24.819962 3.9072492
103.08273 24.824167 3.9129624
121.62097 24.719543 3.9275258
62.026531 25.070156 3.953367
63.292629 24.917427 3.9701889
63.451405 25.058372 4.0971069
63.837036 25.135895 4.0862584
64.734238 24.982819 4.0357857
69.362869 24.955122 3.9313817
70.706139 25.106293 3.9332535
70.988541 25.109032 3.9314783
71.506462 25.198412 4.035428
72.05027 25.079777 3.9938984
74.575493 25.100786 4.0199952
76.028679 25.030895 4.0626359
77.469948 25.031149 4.0318584
77.987885 24.91078 3.9608722
78.081871 24.925381 4.1125073
80.411102 25.011877 4.0551395
83.034462 25.099619 4.0575027
83.336571 24.938286 4.0560803
83.567719 25.166052 3.9292097
83.738525 25.089312 3.9886248
84.117538 25.124128 3.9386332
84.713547 25.06521 3.9753149
85.125015 24.969063 4.0114503
85.565651 25.010517 3.9400251
85.830399 25.084517 3.9306726
86.358978 25.001045 3.9838166
87.274216 24.984106 4.0311432
87.440186 25.09551 4.002965
87.790665 25.066656 4.0888457
88.09964 24.962688 4.047616
88.689079 25.034817 4.0935202
88.904808 24.996893 4.0057297
89.255539 25.130924 4.0085077
89.606911 25.056725 4.0438609
90.125732 25.121819 4.0333419
91.018181 25.129232 4.0174508
91.267776 25.115574 4.04142
91.785126 25.07218 4.003715
92.028282 24.972502 4.0180311
92.574707 25.035881 3.9648669
92.830803 25.005484 4.0689549
93.486656 25.125601 4.0543294
93.664627 25.148191 4.0112829
93.900864 25.114325 4.1791472
94.799538 24.904997 4.0341349
95.848785 25.138937 3.9440427
96.215576 25.061226 4.0137153
96.913544 25.128973 4.040946
97.368004 25.118561 4.0297546
97.967766 25.114868 4.074492
98.952133 25.115856 4.0185194
99.186813 24.986107 4.0226045
99.570786 24.964491 3.9046664
99.755974 25.147699 4.0713663
99.954964 25.070446 4.1194386
100.40373 25.020935 3.9745436
100.53587 25.084946 3.9533679
101.33024 25.081274 4.037118
101.49216 25.140839 4.0661292
102.33295 25.089634 3.9699593
103.6778 25.099844 4.0253201
122.7485 25.163851 3.9645882
123.08494 24.939428 4.1781526
62.050495 25.331985 3.9297702
63.880535 25.264921 4.1216259
64.059792 25.317186 4.0450068
65.956825 25.32789 4.097074
70.694946 25.486946 3.9652615
71.098953 25.299013 3.9131334
71.235016 25.394218 3.9581017
73.202194 25.479534 3.9592605
81.256912 25.382265 3.9954662
84.170593 25.401497 4.0272641
84.331886 25.399908 3.9926436
84.866814 25.372993 4.0211954
85.322922 25.399254 4.0274706
85.515549 25.403137 4.1026745
85.914955 25.452076 4.0192466
86.373398 25.391264 3.9442415
86.941849 25.426846 4.0142264
87.059036 25.230272 4.1740408
88.167305 25.495575 3.9422534
88.297035 25.488983 3.9492247
88.768707 25.304453 3.9749851
88.931343 25.388838 4.0555687
89.249931 25.324007 3.9658415
89.62706 25.363871 4.0407457
90.231239 25.430319 4.0123186
90.474548 25.326328 4.0252914
91.493637 25.240808 3.9029663
91.603867 25.237598 4.0136003
92.02198 25.385895 3.9879875
92.725067 25.313461 4.0124445
93.712425 25.3487 4.1292157
94.744522 25.431416 4.1056809
95.479813 25.224009 3.9512801
96.762413 25.308561 3.98366
97.219421 25.226233 3.9134853
97.667526 25.304562 4.0468006
98.250107 25.485231 4.1211791
98.615646 25.453747 4.0206022
98.833611 25.383942 3.9889994
99.185661 25.270584 4.0359039
99.330521 25.283682 4.0286694
99.74781 25.31827 3.9239571
100.24529 25.252783 3.9477491
101.41661 25.427225 3.9724963
101.86612 25.433689 3.9154396
102.15414 25.454399 4.0641899
103.49828 25.304373 3.9089992
103.79672 25.221163 4.0189919
103.86691 25.259975 3.9217598
119.97414 25.403351 4.1216273
61.559139 25.559446 3.9008861
65.554977 25.533903 4.0984569
69.889328 25.781013 4.1940541
71.109589 25.737389 3.9458292
71.469261 25.66684 4.0756845
72.166718 25.578297 4.0397015
73.060577 25.69733 3.9931128
73.301346 25.516853 4.0258636
76.847237 25.695002 4.1286564
77.467125 25.704039 4.0438848
82.077576 25.764771 3.9655201
82.358353 25.660208 4.0340953
82.630203 25.693031 4.0426598
82.972931 25.671169 4.0013971
83.419052 25.663689 4.0973644
83.783768 25.618628 4.0685639
84.414093 25.613234 4.0517573
84.625 25.681694 4.0145192
85.232483 25.546507 3.9211683
85.674454 25.750969 4.097054
86.013222 25.613672 4.0298419
86.162811 25.60537 4.0804672
86.549835 25.642548 4.0472388
86.932358 25.618435 4.0360074
87.095772 25.738886 4.1009564
87.437599 25.70233 4.1809077
88.146286 25.763893 4.1562195
88.375725 25.537804 3.9339657
88.577423 25.66378 4.0074768
89.223862 25.687286 4.0299883
89.610329 25.781471 3.9235129
89.920288 25.637686 4.086493
90.174423 25.503248 3.9426894
90.771164 25.704281 4.0756817
91.128708 25.563522 3.9773021
91.920532 25.781317 4.0480757
92.178696 25.540466 4.1411171
92.610237 25.694571 4.0888987
92.930702 25.670225 4.0542932
93.108719 25.507698 4.1033578
93.747711 25.635937 4.1312685
94.989319 25.552402 3.9947259
95.148643 25.662878 3.9708023
95.650826 25.616772 4.0070314
96.21299 25.667822 4.0048199
96.316612 25.56946 4.1667137
96.703957 25.600445 3.9549952
97.073143 25.589172 4.0712266
98.270714 25.503017 4.0849099
98.881821 25.713598 3.9742913
101.89928 25.594398 3.938983
102.27804 25.512556 3.9838507
102.70515 25.644014 3.9513516
103.36048 25.668915 3.9710655
103.5604 25.637621 3.9324818
104.85898 25.586344 3.9381607
106.60396 25.787382 3.9643512
121.44827 25.779097 3.911557
122.4472 25.684263 3.9597874
124.73679 25.748169 4.0869613
65.555092 26.012028 4.1044674
66.7687 25.918886 4.137805
68.467628 26.089808 4.0097766
68.996758 26.028004 4.1418281
69.028885 26.091406 4.1199245
71.223022 25.978415 3.9775605
72.824997 25.935432 4.0223498
72.928993 26.000175 4.0102859
73.415627 25.911051 4.0247822
73.539116 25.870378 3.9837866
74.226097 25.996166 4.0740991
74.902031 25.931719 4.1703629
75.570557 26.067272 3.9406996
75.995552 26.090521 3.9824038
77.035904 26.062962 4.087244
78.280373 25.964697 4.0470977
79.385429 25.873796 4.135602
82.07605 25.962708 3.9433026
82.39782 25.803694 3.9902797
82.934677 25.845951 3.9707975
83.889107 26.093315 4.0299201
84.154335 25.979694 4.1704173
84.469093 25.824402 4.1660075
85.05687 25.958244 4.1229396
85.58445 26.082434 4.1925406
85.867722 25.84016 4.1280575
86.604172 25.959801 4.1471877
86.754654 25.87022 4.0159187
87.179649 25.991528 4.0984077
87.564453 25.913116 4.0109334
88.078674 25.934893 4.15136
88.347992 26.02774 4.1191072
88.618752 25.975489 4.073925
89.129372 25.90534 4.0095458
89.564743 25.828594 3.9620194
90.185333 25.899292 4.0273752
90.651581 26.038517 4.0281734
91.248276 26.073975 3.9948356
91.856583 26.006256 4.0465374
92.231842 26.062857 3.9108403
92.851837 25.861382 4.0886869
93.395767 25.86544 3.9418771
93.847717 25.990593 4.1197772
94.43718 25.855965 4.0680466
94.633957 25.996479 4.0774312
95.697998 26.059431 3.9784377
96.198601 25.94129 3.9893503
96.988083 25.976418 3.951539
97.773521 25.994055 4.0687923
97.895653 26.054291 4.084703
98.155052 25.99699 4.0933976
100.43117 25.998383 3.9144273
100.56976 25.979443 3.9206066
100.96651 26.081005 4.1967649
101.60007 25.842535 3.9908695
102.0784 25.932966 3.9218407
102.74896 26.032192 3.9534094
105.62518 25.945675 3.9481883
106.74382 25.864302 3.9299698
107.83723 25.962112 3.9661739
120.82678 25.815937 4.1646423
62.554581 26.388113 4.1220336
64.042618 26.150646 4.1411648
64.323441 26.274969 4.1513515
68.270401 26.104816 4.1058092
70.243942 26.266535 3.9617097
71.01416 26.355501 4.0343823
71.432495 26.102886 4.0200787
71.881638 26.141243 4.0850811
73.017937 26.217987 4.0250769
73.320236 26.319967 4.0069704
73.579773 26.244684 3.9625814
73.959503 26.283028 4.0178895
74.317528 26.226562 3.9894388
74.42215 26.166622 3.9694331
75.098785 26.317585 4.058815
75.346237 26.379061 4.1057658
75.844299 26.139252 3.932893
76.046234 26.338688 3.9977865
76.632393 26.304274 4.1902747
77.148788 26.112 4.0106983
77.496689 26.207748 3.9747376
79.552689 26.399324 4.1844025
81.567566 26.224255 3.9900398
81.927193 26.339098 4.1938939
83.997498 26.240196 4.0820279
84.168533 26.175554 4.043447
84.364609 26.138878 4.1385303
84.855103 26.155855 4.0589762
85.331642 26.134085 4.0791783
85.581367 26.135366 4.0913749
85.890999 26.304449 4.0783296
86.268242 26.31813 4.0752482
86.516556 26.342194 4.0062385
88.238037 26.245972 4.0554399
89.824844 26.270233 4.106977
90.085838 26.323215 4.0200205
90.336578 26.168602 3.9532995
91.074066 26.361185 3.9828708
91.339653 26.281527 3.9890573
91.678322 26.343235 4.0944662
91.889053 26.336281 4.0134921
92.640274 26.315304 4.1029935
92.969772 26.207205 3.9033716
94.157692 26.134329 3.9688909
94.330711 26.199366 3.9880466
94.635712 26.325483 4.0345173
94.911316 26.101236 4.0165563
95.561775 26.275387 3.9276595
96.821304 26.204988 3.9681318
96.939079 26.22648 3.9911239
97.356606 26.13949 4.098115
97.726379 26.232058 4.03302
98.314041 26.287504 4.0499706
98.432663 26.189745 4.1006579
98.881805 26.374615 4.061233
99.067207 26.267027 4.0692306
99.400696 26.345657 4.0070052
100.67564 26.39595 4.0490117
101.06708 26.10914 4.1215258
101.67428 26.394857 3.9272285
102.35703 26.357178 3.9829192
103.26737 26.19231 3.9940853
103.78564 26.295742 4.0884929
105.0726 26.357616 3.9373655
105.79716 26.193037 3.9327531
116.45197 26.314156 3.9524443
62.654938 26.524353 4.1171322
64.387238 26.62237 4.1618595
67.170563 26.513685 4.0332079
69.981964 26.675756 4.1306949
72.790062 26.652214 4.004354
73.241219 26.473789 4.0840306
73.648354 26.565817 4.0577383
74.366409 26.501408 4.1528144
74.520332 26.553339 4.1582732
74.963112 26.432486 4.043263
75.233864 26.693665 4.153286
75.773544 26.618038 3.95472
75.90406 26.420374 4.1859179
76.997299 26.656069 4.1516218
77.291016 26.560228 4.0567389
80.680298 26.675928 3.9196498
82.201561 26.616713 4.1901073
86.661263 26.428621 4.0940866
86.844788 26.523905 4.1284065
87.208466 26.54266 4.142365
87.579872 26.482136 4.1174984
87.735466 26.664536 3.9757073
88.952866 26.577442 4.0475526
89.491768 26.49478 3.9322367
89.802734 26.593954 4.0904193
90.149208 26.589457 4.0839772
90.80481 26.621521 4.10921
91.06385 26.473253 4.0038686
91.461914 26.437807 3.9134185
91.658447 26.554296 3.9493484
91.911926 26.617926 3.9924595
92.823219 26.600098 4.0176282
93.502075 26.62709 4.0883565
94.027992 26.414253 4.1952467
94.352798 26.603643 4.0061889
94.647804 26.52352 4.0702138
94.971977 26.589409 3.9635928
95.126091 26.6203 4.1208119
96.128334 26.618456 4.0339198
96.418541 26.680271 4.1621184
96.63649 26.508968 4.0859613
97.180443 26.685743 4.1174936
97.402328 26.593805 4.0585794
97.607864 26.616203 4.0041156
98.919128 26.484692 4.0240908
99.158455 26.48955 4.0236993
99.45829 26.542759 4.0627928
99.764061 26.514076 4.0025549
99.992729 26.610914 4.0373282
100.77203 26.415281 4.0302711
101.00516 26.507061 3.9610827
101.20383 26.494427 3.9327776
101.75245 26.6516 3.9611831
102.20609 26.439064 4.0916567
102.36288 26.445763 4.0421443
102.75581 26.593866 3.9322667
103.47886 26.528461 3.9868257
103.59859 26.597424 4.0042243
105.44086 26.674786 3.9155519
106.43121 26.653528 4.1770601
107.18291 26.641546 3.9206846
109.03909 26.651829 4.0492244
122.22533 26.431797 3.9368546
62.365295 26.965914 3.933028
63.120613 26.797281 4.0926542
64.106392 26.810658 4.119648
67.796532 26.81945 4.1199169
69.06424 26.865931 4.1317587
70.677834 26.802284 4.0739036
72.996521 26.951408 4.0323954
73.642784 26.949341 4.0485482
74.02475 26.874935 4.1389031
74.155334 26.998001 4.1876016
74.928528 26.77581 3.9933562
75.140778 26.768379 4.0779366
75.433899 26.743536 4.1543617
75.826851 26.925041 4.1693521
75.946152 26.982395 4.1488905
76.474495 26.84639 3.9485283
77.824768 26.812006 4.1936884
78.090393 26.962347 4.1535068
78.417 26.874437 3.9978893
79.116081 26.802896 4.1979632
81.763199 26.839668 4.1864471
82.919388 26.837391 4.0308499
84.037354 26.798759 4.1959486
86.877525 26.806227 4.0576754
87.763847 26.929411 4.1700416
88.172195 26.815441 4.0466585
88.269806 26.903799 4.1156006
88.982262 26.833755 4.0557427
89.267273 26.965057 4.1603451
89.539627 26.851749 4.0791268
89.817665 26.859135 4.0319033
90.561867 26.810116 4.0272985
90.727356 26.844282 4.177587
91.112366 26.785681 4.0383372
91.36985 26.831644 4.0729103
91.559647 26.791437 4.1913862
92.175117 26.803675 4.1350589
92.518242 26.926455 4.0057626
92.773842 26.852304 4.1548209
93.149117 26.859446 4.019309
93.45504 26.840158 4.0346398
93.754044 26.868156 4.0080194
94.394196 26.827684 4.058732
94.68055 26.920504 4.159153
95.058228 26.977259 3.9419498
95.26255 26.772945 4.0499268
95.735771 26.913744 4.0027895
96.189423 26.87743 4.1526875
96.944153 26.934824 4.047205
97.287399 26.958096 4.025259
98.129539 26.773054 4.1576819
98.712753 26.953156 4.037179
99.177505 26.911127 4.0550814
99.526665 26.828606 4.0055943
99.74054 26.859463 4.0072455
100.45566 26.799368 4.0386701
100.7299 26.810629 4.034018
100.96828 26.725216 3.9754248
101.67878 26.893929 3.9538331
101.88584 26.781607 3.9792569
102.2004 26.946747 4.0100455
102.35801 26.92779 3.9862251
102.85667 26.91971 3.9115448
102.96015 26.957315 3.9935758
103.49173 26.965931 3.972878
104.76975 26.741541 3.9008856
106.55233 26.701279 4.0251694
107.28021 26.855875 3.9588149
107.96551 26.857395 3.9406693
109.17589 26.708664 4.0177174
122.54561 26.72381 3.9401982
123.87321 26.966661 4.1281981
61.571457 27.14381 3.9322882
62.216019 27.282146 3.9683549
64.14196 27.163708 4.1183686
65.235977 27.152945 4.1286874
66.709824 27.228743 4.1832266
67.161491 27.045998 4.093874
67.30101 27.090059 4.0934792
67.876068 27.131302 4.1599746
69.495491 27.146389 4.1147308
69.727692 27.211536 4.1545105
73.756195 27.05578 3.9660723
74.05162 27.158991 4.1125226
74.25145 27.095135 4.0674505
74.566757 27.179848 4.073832
74.951332 27.171638 4.0563927
75.192322 27.110846 4.0446897
75.852119 27.033503 3.9792061
76.287758 27.254345 4.1769891
76.647087 27.086975 4.1560402
76.929977 27.088301 4.1976047
77.107201 27.085903 4.092823
77.848061 27.187248 4.0796032
78.009521 27.10457 4.1975441
78.558182 27.094856 4.1744871
78.656906 27.279011 4.1409631
79.170059 27.225014 4.1154389
79.297325 27.256853 4.0434484
80.718132 27.227615 4.1939459
84.229393 27.124802 4.1374774
86.537849 27.174097 4.1147513
88.574608 27.158381 4.0999737
89.237175 27.076723 4.1601939
89.575798 27.179476 4.1405711
89.848244 27.135275 4.0920048
90.289757 27.068077 4.0751486
90.462379 27.102972 4.061409
91.207687 27.224754 3.9908347
91.724403 27.2024 4.1074939
91.931778 27.168945 4.1197667
92.36554 27.167202 4.060915
92.561302 27.201437 4.0484748
93.441551 27.171906 4.0932393
93.684097 27.147289 4.1101336
94.08506 27.113976 4.0861411
94.253181 27.194056 4.1194692
94.856758 27.231552 4.1277943
95.115379 27.090429 3.9840171
96.130936 27.263039 4.0878968
96.492554 27.085863 4.1453676
96.65345 27.059181 4.1814904
97.751503 27.267546 4.1742787
97.924263 27.190495 4.1598887
99.412285 27.281116 4.0782576
99.810265 27.174437 4.0428791
99.978355 27.266851 4.0622964
100.41275 27.210403 4.0071859
100.54749 27.182983 3.9284542
101.07951 27.214632 3.9445617
101.49897 27.184263 3.9133904
102.37314 27.032707 3.9252927
102.75307 27.179434 4.0046344
103.00414 27.113335 4.0368872
103.32269 27.268856 4.0415492
103.58768 27.079424 4.1881247
107.6431 27.070217 3.9799333
107.86416 27.072489 3.9657013
108.08429 27.060337 3.9454925
108.72307 27.224373 4.0679417
109.39532 27.105774 4.0060573
109.57737 27.067375 3.9787757
123.43694 27.052097 4.1367416
124.64709 27.215956 4.1781592
67.420105 27.384312 4.087286
74.282845 27.49535 4.1865435
74.534584 27.573614 4.1398525
74.855103 27.402554 4.1472168
75.15744 27.361616 4.1229105
75.653419 27.598377 4.1550703
76.072746 27.440033 4.1205225
76.951813 27.422791 4.1017699
77.586296 27.302156 4.1496072
77.818237 27.422569 4.1939979
78.728256 27.365061 3.921294
79.102608 27.406872 4.0969138
79.301208 27.446283 4.0586405
79.609726 27.450321 4.130867
84.676636 27.351284 4.1790171
90.912338 27.397224 4.0915203
91.30899 27.561228 4.1453862
92.565102 27.404499 4.0524616
92.841438 27.46232 4.0725555
93.084763 27.574615 4.000176
93.480354 27.364445 4.0158157
93.627258 27.514374 4.1136942
94.174332 27.570507 4.0346012
94.271866 27.407852 4.0437565
94.950203 27.379309 4.0374217
95.115593 27.342163 4.1750431
96.250679 27.593979 4.1813402
97.40464 27.507071 4.0260329
97.607468 27.479059 4.0393705
98.254814 27.540377 4.1641183
98.693237 27.442345 4.1896238
99.258392 27.314337 4.0108542
99.470894 27.31216 4.0894136
99.729713 27.409899 4.0739064
100.13304 27.401859 4.0772662
100.3876 27.415018 3.9720855
102.01624 27.363874 4.136838
102.4531 27.512392 4.1456137
102.67406 27.431143 4.0298958
103.03585 27.491962 4.0274301
103.3891 27.42824 3.983124
103.90721 27.311481 3.9920285
104.21624 27.308205 3.9893
104.43176 27.414978 3.9958906
104.87375 27.459858 3.9942436
105.54215 27.447523 3.9229994
106.4448 27.549007 3.9212537
107.65813 27.471889 4.0923028
107.71067 27.486969 4.1348939
108.1521 27.326626 4.0373549
115.60069 27.514866 3.9363878
74.618294 27.701855 4.1319871
75.768677 27.642365 4.1546497
76.704742 27.682072 4.1854448
76.801323 27.722414 4.1448078
77.379745 27.784729 4.16926
77.809967 27.871862 4.1517329
78.444702 27.739986 4.1586885
78.68145 27.737694 4.1474385
80.450951 27.770502 4.1863251
80.777771 27.873285 4.090013
85.153557 27.729836 4.1693373
91.262985 27.612753 4.1075706
91.559669 27.74859 3.9316187
92.381912 27.688345 4.0356688
92.502136 27.723705 4.1817026
92.812119 27.690943 4.0848527
93.103424 27.811781 4.0186806
93.489662 27.775766 3.9949882
93.734581 27.651005 4.1071258
93.984192 27.803755 4.1950469
94.324081 27.672396 4.0364685
94.718201 27.828362 4.0328503
94.80397 27.688169 4.140099
95.192268 27.782049 4.0167212
95.958061 27.842424 4.0832729
96.10611 27.74143 4.0963283
96.370033 27.696463 4.137454
96.619629 27.70627 4.1667895
101.36585 27.632189 3.9743392
101.43662 27.679089 3.9194601
101.84035 27.873135 3.9860938
102.19374 27.89146 4.0128922
102.5341 27.740036 4.0295367
102.69507 27.721567 4.0055485
104.9618 27.78149 3.9904613
105.13152 27.786983 3.9716871
105.4993 27.719118 3.9691372
106.09208 27.864868 3.9425864
76.723625 27.948721 4.1393929
77.16143 27.90976 4.169395
78.375244 28.080404 4.060739
78.97702 27.914656 4.100523
79.415909 28.06848 4.0018725
79.626266 28.160553 4.0882788
80.513031 28.058996 4.0808921
80.869598 28.000015 4.1007304
81.035645 28.046041 4.0700212
81.956894 28.130125 4.1915383
92.002975 28.125 4.1434827
92.445526 28.095781 4.1573606
92.722038 28.068352 4.1535921
93.226143 27.993105 4.0826869
93.380257 28.056608 3.9902773
93.780052 28.027918 4.1460962
94.932121 27.956276 4.0481935
95.815895 28.024437 4.1128964
97.434624 28.154938 4.0325956
97.953056 28.043827 4.1487708
100.26705 27.909935 4.0420785
100.61997 28.183506 4.040616
101.79747 27.903049 3.9767177
102.10024 28.038851 4.1281161
103.68455 28.121197 3.9210889
103.86067 28.084778 3.9570231
104.61693 28.143896 4.0974317
104.85385 28.066689 4.0255599
105.16285 28.122728 4.0367856
105.44608 27.937098 3.9766524
105.71614 28.122837 3.9798217
106.47288 27.925978 4.1846843
107.31653 28.14279 3.9186218
108.67925 28.062956 3.9134858
109.11265 28.116209 4.029418
115.63299 28.009439 3.9162855
124.38285 28.102242 4.0943918
70.555984 28.240278 4.1952596
74.470222 28.215681 4.074132
76.5355 28.311899 4.1674933
76.815582 28.283785 4.1937389
79.072105 28.42544 4.0829349
79.43042 28.360794 4.1433587
80.204758 28.30619 4.0133028
80.616249 28.247122 4.1939898
81.410179 28.222784 4.1677022
81.684296 28.247204 4.1972513
82.076103 28.330786 4.0352821
84.42514 28.499666 3.9260991
91.675331 28.306505 4.1386986
92.434113 28.396526 4.1427336
92.95665 28.323402 4.039093
93.256523 28.251261 4.1964059
96.427414 28.40398 4.1184273
96.770927 28.3566 4.1070924
97.057587 28.418064 4.1227117
97.46405 28.204536 4.0325456
100.18555 28.476727 4.1008992
100.33538 28.321131 4.0230999
100.54069 28.324327 4.1939316
101.64851 28.461065 4.0140882
101.79687 28.418337 3.9993966
103.76749 28.497829 3.9700131
104.16264 28.351313 4.0444722
104.55771 28.256178 3.9661241
104.95254 28.230453 3.9139826
105.17266 28.316345 3.9951336
105.31937 28.298159 3.9581366
105.69947 28.264727 4.0977435
106.01334 28.309729 3.9631157
106.27281 28.292131 4.012146
107.42986 28.303251 4.0651393
115.46748 28.318914 3.9715006
115.57086 28.275755 3.9872551
116.92841 28.350649 3.9027948
119.83559 28.357285 4.0299039
124.33685 28.244272 4.0527983
76.81501 28.798027 4.1951585
78.367706 28.664398 4.1223345
78.812225 28.676947 4.0219517
79.220924 28.533211 3.9884839
79.580688 28.653051 4.1351509
79.840881 28.726618 4.1518288
80.653214 28.688784 4.1506176
82.15406 28.630402 3.937037
82.343681 28.557217 4.0693717
82.943283 28.566092 4.1163492
84.107025 28.618486 4.1007462
91.945633 28.71541 4.0573912
94.756203 28.737101 4.1292405
95.209656 28.538925 4.0409265
95.755653 28.68272 4.1749592
96.446342 28.721718 4.1258569
97.111992 28.784437 4.1548886
99.86956 28.553217 4.132802
99.947617 28.59277 4.1540084
100.25066 28.552929 4.1719856
100.65303 28.601538 4.0788264
101.86717 28.796173 4.0533361
102.63984 28.622782 4.0038033
102.93394 28.535122 4.0165744
103.35244 28.6103 4.0451922
103.6613 28.622927 3.9881871
103.93258 28.690817 3.9813728
104.26961 28.634512 4.0070686
104.59116 28.67547 4.0475001
105.23724 28.659056 3.9682255
105.44041 28.61825 3.9595551
106.54403 28.549528 4.0109291
107.12326 28.780436 4.1368203
107.67771 28.588736 4.0409565
107.85006 28.667501 4.0455055
118.68559 28.525282 4.012991
69.214424 28.826599 4.1786609
78.82692 28.986977 4.1558452
78.978691 28.986984 4.1072803
79.427094 28.891825 4.1949854
81.847488 28.843319 4.1170382
82.932251 28.969379 4.0639606
83.895454 28.886946 4.0183325
84.183403 28.893641 4.1148319
84.317909 28.936075 4.1135612
91.623718 28.845287 4.0613308
92.254761 29.019188 4.0507069
92.552406 29.017963 3.9805992
93.184235 28.876245 4.1239996
98.376175 29.097557 4.1862226
99.48822 29.077635 4.1664476
100.01933 28.860842 4.0390115
101.59284 28.88592 4.0470266
101.80231 28.846951 4.0669374
102.78558 28.925276 4.0656219
103.07349 28.98484 4.0207477
103.63931 28.873337 3.9611232
104.66515 28.908588 4.0347114
105.36549 29.041737 4.0262456
106.09193 28.893373 3.9592159
106.61797 29.051863 4.0862541
107.55315 28.884689 3.9584618
107.94211 28.905373 4.0446081
108.13885 28.990637 3.98353
108.7524 28.911026 4.0560012
110.94274 29.004726 4.0219498
56.554356 29.159546 3.9291589
76.013588 29.358961 4.1405988
79.257004 29.337244 4.1039596
81.481316 29.391247 4.124692
82.100433 29.131805 4.0594244
82.4328 29.211252 4.1773791
82.592804 29.369364 4.146811
82.881104 29.324215 4.1085711
83.829826 29.120996 4.1819515
93.484886 29.208353 4.0562243
94.127083 29.226135 4.1128645
95.942017 29.298122 4.1781688
97.106766 29.207361 4.1117716
98.234871 29.141548 4.134131
100.35413 29.24955 4.096107
100.83684 29.291166 4.1636043
101.19522 29.293684 4.1362081
101.69915 29.146709 4.0893683
101.78404 29.178841 3.9860935
102.74171 29.246456 4.0133553
103.12374 29.282307 4.0758114
103.32563 29.281254 4.0989718
103.58301 29.347046 4.1126819
103.83128 29.380817 4.0219436
104.25212 29.280807 4.0222073
106.29127 29.312298 4.1368918
108.53801 29.298977 4.0131769
108.63636 29.11883 3.9879911
110.86758 29.11409 3.9060783
116.53089 29.315168 3.9382672
118.81182 29.382185 4.088232
76.032578 29.525814 4.1600628
79.357323 29.583822 4.189919
80.222755 29.405447 4.0111732
81.172409 29.489857 4.0677142
81.860123 29.535295 4.0271649
82.71183 29.424118 4.1249671
83.026207 29.53241 4.1275005
83.456337 29.614845 4.1692309
83.977051 29.644419 4.0163445
91.616753 29.650587 3.9794767
92.645325 29.613604 4.1494708
93.553009 29.506702 4.1681757
93.72702 29.530563 4.0489521
94.7733 29.517271 4.1505365
100.63512 29.537991 4.1236696
101.03696 29.568483 4.1894484
102.43378 29.46842 4.1740117
102.87865 29.473581 4.1938
103.68552 29.598122 4.1339965
103.83256 29.49865 4.0625176
104.22246 29.545879 4.1027098
107.28772 29.542053 3.9933102
108.53538 29.551584 4.1299305
108.83707 29.494488 4.0197206
108.95541 29.605385 4.1072717
109.99102 29.41116 3.9529834
110.4315 29.653202 3.9129727
110.97997 29.437494 4.1032205
112.83769 29.693155 3.9908056
118.7653 29.41535 4.0353589
120.22292 29.656403 3.9291818
79.641876 29.911119 4.0376658
79.872826 29.871674 4.151773
82.790344 29.757681 4.0185871
92.356628 29.855759 4.171145
93.079582 29.845388 4.1348338
94.044708 29.777819 4.1265244
94.602257 29.781134 4.1182632
104.84473 29.881983 4.1052299
106.36903 29.858093 4.0496178
108.63876 29.797695 4.088944
109.65582 29.748611 3.9499753
119.3839 29.747742 4.0042071
80.151894 30.23177 4.1143346
81.107735 30.205824 4.0428042
81.587227 30.260441 4.0418334
81.989494 30.044909 4.0238519
92.235519 30.220581 4.1426392
93.11792 30.101921 4.1167765
97.2416 30.057056 4.1787891
104.26496 30.091883 4.160666
104.83858 30.204544 4.013308
105.70272 30.196962 4.0203767
108.07641 30.14024 4.1495266
114.69627 30.181139 3.9071832
81.22879 30.316481 4.0508146
82.101433 30.497326 4.1581039
92.64817 30.401966 4.0474534
93.369781 30.310066 4.1828942
104.41892 30.42889 4.0476012
104.86562 30.315847 4.0970702
105.13596 30.464462 4.0614486
105.53572 30.377165 4.0818071
106.25653 30.523361 4.1183538
107.9289 30.581404 4.0559101
114.29797 30.357256 3.9211414
104.83598 30.814528 4.1106224
105.21847 30.791031 3.9800129
105.89495 30.756737 3.9864707
106.35308 30.659857 4.1072612
108.00909 30.687151 4.0638795
109.07654 30.654547 4.1113095
109.75555 30.778849 4.0080895
109.84194 30.841692 4.0303187
110.84304 30.729736 3.9225121
111.28816 30.619545 3.9178925
115.21594 30.824818 3.9502313
115.87723 30.857662 3.9710422
117.01981 30.836981 3.9614217
80.484818 30.986374 4.1359301
104.92757 31.14691 4.1798573
105.61092 31.199219 4.0214076
108.47824 30.923391 4.0506783
108.94359 31.118797 4.0690565
109.44936 31.015211 4.0666242
110.40739 31.040602 3.9845788
113.06049 31.183126 3.9196599
113.14005 31.155859 3.9493558
114.26827 30.911081 3.9725225
114.8979 31.043213 3.9474173
121.18169 31.093781 4.1478791
80.607254 31.20719 4.1028748
104.30579 31.340248 4.0839152
104.85101 31.300089 4.1256061
105.18719 31.442331 4.0219169
105.37196 31.367901 4.1458921
105.64811 31.213657 4.0184383
106.78239 31.450949 4.1102743
108.39864 31.319794 4.113143
110.4096 31.327419 4.0324788
114.14548 31.408878 4.0482311
117.0631 31.432503 4.1666751
121.35272 31.262188 4.168282
104.33978 31.789785 4.1427164
104.63084 31.559116 4.1069751
104.71258 31.626152 4.1098628
106.15657 31.757467 4.196579
115.32988 31.75404 3.9883819
116.2556 31.538225 4.0423498
119.00607 31.798971 4.1639361
104.16289 31.920639 4.1125169
104.90158 31.962891 4.1436844
105.189 31.897776 4.187706
105.65686 32.0695 4.1855292
109.13287 31.866999 4.0507131
116.64549 31.843002 4.0345602
119.12714 31.861542 4.0985007
105.89741 32.236069 4.1130481
105.94927 32.274967 4.0190043
109.68243 32.2798 3.9631109
110.28679 32.27298 4.0883961
120.38959 32.218945 4.1981583
121.12457 32.365604 4.1261277
104.7552 32.66161 4.1186008
108.70926 32.550892 4.0471373
109.22163 32.672157 4.1484938
114.24865 32.645416 4.0007424
116.83112 32.52343 4.0333743
107.04594 32.885597 4.036849
107.37938 32.859158 4.146275
107.54114 32.824406 4.1008253
107.74005 32.876053 4.0267563
108.75079 32.789253 4.0979385
109.36496 32.776165 4.1501164
110.0147 32.870178 4.0454955
114.5495 32.9692 3.9515843
114.65907 32.988071 4.0170746
117.02892 32.966293 3.9938772
117.94981 32.773029 3.9351242
119.67278 32.901691 4.125073
119.70065 32.90929 4.105309
120.04202 32.873367 4.1843519
104.77567 33.186226 4.1413746
106.78066 33.011665 4.0719681
106.93148 33.132172 4.0062089
107.16907 33.063152 4.172925
108.20362 33.079449 4.1624122
108.32048 33.169453 4.0928574
108.80772 33.245823 4.1036086
110.65901 33.099705 4.1120481
116.78511 33.224792 4.1587639
117.73863 33.205059 4.1707039
104.00748 33.56966 4.0219359
105.01598 33.534332 3.9984448
107.96213 33.357861 4.09338
108.13147 33.387325 4.0357227
108.76348 33.389877 4.1353226
108.97298 33.385891 4.1936359
110.91563 33.533066 4.1416793
111.03042 33.592804 4.1166878
111.61246 33.439293 4.0304627
116.82806 33.333435 4.1240172
117.92141 33.598221 3.9990377
103.02242 33.809177 4.1567869
103.36049 33.705193 4.1188006
104.01312 33.814999 4.0828934
104.72154 33.838779 4.1533709
105.32588 33.765015 4.1635504
106.49496 33.825745 4.0115047
106.60723 33.850681 4.1802378
108.58744 33.83173 4.0424619
108.68127 33.63213 4.034605
114.15137 33.829704 3.9717269
114.70992 33.770985 4.0048552
115.66164 33.635296 4.0138545
116.64484 33.82959 3.9977205
104.25223 34.071819 4.1104407
104.62555 34.108551 4.110599
104.72826 34.138084 4.1217127
106.58215 33.968132 4.0939054
107.60766 34.122196 3.9565055
108.47624 34.066021 4.080513
114.16968 34.153702 3.9934683
114.43531 34.142319 3.9322634
115.31875 34.017284 4.0641389
115.58772 34.064514 4.0679054
116.3287 34.175072 4.0459614
117.04761 33.990437 4.1901917
117.35883 34.05204 4.0139041
118.09061 33.997299 3.9959118
118.23648 34.032146 4.180459
104.66924 34.393967 4.1621461
106.66654 34.229092 4.1252909
107.2829 34.247902 3.9597478
114.84243 34.297443 3.988441
115.47018 34.308758 4.0137939
116.06828 34.452042 4.010088
116.34143 34.357567 4.0617132
116.4472 34.452629 4.153739
103.03017 34.741737 4.0789595
113.89606 34.571243 3.9471231
114.16831 34.698353 3.9493256
114.4118 34.538052 4.0217366
114.95817 34.631229 4.0101418
115.41553 34.708363 4.0316148
115.95629 34.589298 4.1147499
116.42552 34.679531 4.1320486
119.94604 34.786869 4.1272469
120.21333 34.550568 4.1555238
104.09354 35.082302 4.1516075
106.45403 35.040894 4.1546516
106.62611 34.985985 4.0627875
107.58367 35.028648 4.1884298
114.41117 34.923351 4.0480552
103.86365 35.336826 4.1522012
107.57394 35.171421 3.9037912
108.14265 35.302849 4.0992584
114.21006 35.211327 4.055789
114.56931 35.284073 4.0385671
99.483948 35.403004 4.1254854
103.60026 35.567715 4.1821189
106.11901 35.577511 3.9678841
106.74535 35.65551 4.1399336
112.74356 35.538197 4.0938182
113.8886 35.669258 4.0291972
114.17453 35.427689 4.0036278
114.3886 35.560295 4.0985975
117.5918 35.669521 4.1544919
119.25918 35.559299 4.1377664
105.48393 35.863358 4.1195474
115.79208 35.829884 4.1482
115.82642 35.716644 4.0535507
105.44876 36.057182 4.1470194
106.0485 36.209255 4.0321693
107.98195 36.228638 4.130919
108.23073 36.163982 4.0917835
114.12183 36.10968 4.0412197
114.41795 36.169247 4.0627189
115.35442 36.050167 4.0242534
105.1254 36.489262 4.1851869
107.93665 36.526649 4.1177268
115.10523 36.358509 4.0695043
118.71922 36.448334 4.1416082
114.25945 36.827145 4.1851735
115.94465 36.763439 4.191946
118.46185 36.863483 4.0123377
118.50766 36.893925 4.0708408
115.89026 37.117237 4.1343174
117.64275 37.065746 4.1732278
117.93986 37.184845 4.1699986
118.54269 37.017078 4.0350108
114.84906 37.503311 4.1578617
115.11099 37.796791 4.1557808
117.43945 37.542133 4.1034036
107.44256 37.854904 4.1157322
115.21184 37.841488 4.1569924
105.86935 38.193966 4.1839614
106.32129 38.399895 4.1268754
116.88368 38.60688 4.1569815
112.90607 38.998787 4.1637936
111.84419 39.023933 4.1662273
119.45257 40.129284 4.1715345
114.41274 40.597939 3.9403243
53.39045 47.294437 3.9856443
102.1778 23.944918 4.2666364
93.04409 24.715315 4.3086171
98.071625 24.831583 4.2473478
100.85303 24.863955 4.2345572
85.225014 25.183369 4.3878841
87.698967 25.07419 4.2108979
99.754059 25.076427 4.3181729
81.950218 25.396765 4.2214985
85.407578 25.260527 4.2867794
89.428307 25.325006 4.2693686
90.609009 25.491354 4.2173381
96.161072 25.274998 4.3482103
100.16629 25.310385 4.4427738
100.22073 25.343765 4.4542823
77.050255 25.772455 4.251236
83.283897 25.715256 4.2255402
84.451691 25.679279 4.2202072
87.076729 25.524996 4.2153478
89.55619 25.782328 4.2721267
92.655586 25.586676 4.2355366
94.963699 25.576693 4.3517752
95.528748 25.791334 4.2531209
97.732285 25.61591 4.2826109
98.054482 25.533491 4.2456231
98.256088 25.786982 4.2443581
63.7789 26.044771 4.2198362
