# .PCD v0.7 - Point Cloud Data file format
VERSION 0.7
FIELDS x y z
SIZE 4 4 4
TYPE F F F
COUNT 1 1 1
WIDTH 1506
HEIGHT 1
VIEWPOINT 0 0 0 1 0 0 0
POINTS 1506
DATA ascii
-90.338387 43.923599 -0.34645575
-91.192986 46.187279 -0.11776924
-91.519371 46.7826 -0.42745373
-91.053764 47.073078 -0.1517019
-91.494743 48.829124 -0.28375167
-91.450684 49.314346 -0.17626388
-91.643997 50.260994 -0.37701118
-92.800095 50.981728 -0.41200176
-92.136002 50.88327 -0.3054688
-91.495247 50.804062 -0.15459269
-90.607216 50.518379 -0.49360651
-92.796638 51.124069 -0.35041401
-92.23613 51.257168 -0.30070627
-92.944969 52.521805 -0.042065296
-91.634476 52.784103 -0.39854401
-91.650406 53.30793 -0.43235326
-91.54689 53.557526 -0.48466641
-91.871414 55.1185 -0.35564101
-92.674934 55.59938 -0.18087928
-93.695732 56.407238 -0.092751883
-93.788605 56.502541 -0.17195362
-92.723976 57.357525 -0.32772219
-92.080078 57.639687 -0.37091696
-93.348175 58.343121 -0.3129507
-93.186913 59.254078 -0.39630476
-92.781288 60.534702 -0.40254447
-93.772453 61.069042 -0.053942461
-86.849785 80.997818 -0.30377525
-89.592163 81.20253 -0.03098095
-87.187759 81.239998 -0.36982134
-86.34549 81.416824 -0.45648575
-85.285744 81.315041 -0.45237303
-86.684357 81.592255 -0.41414827
-90.071877 40.442966 0.47301197
-89.932098 40.193634 0.33709031
-90.353722 40.637959 0.24865383
-91.030304 43.09631 0.062727973
-92.165207 48.438385 0.27030528
-88.172371 81.107895 0.0032309429
-86.676941 81.427025 0.066421598
-88.265755 82.647369 0.24007529
-89.536301 39.203918 0.65233451
-92.71489 54.99456 0.63456309
-88.771095 83.694633 5.4219317
-88.4841 83.686058 5.4684339
-88.848915 84.352669 5.4510665
-88.950218 84.502518 5.3614802
-86.668053 84.982681 5.4333076
-86.391479 84.59169 5.439424
-85.408592 85.838364 5.4903741
-90.714874 83.973297 5.7088342
-88.882797 83.959999 5.5048022
-88.386795 83.781715 5.6000948
-90.575737 84.285393 5.6095309
-90.357445 84.203049 5.6868715
-88.7127 84.265419 5.5740428
-88.428619 84.17646 5.7608862
-86.698914 84.4235 5.6872773
-89.736092 84.906258 5.9422631
-89.015785 84.905685 5.5002537
-88.816818 84.701767 5.6562767
-87.243256 84.819702 5.8170304
-86.700958 84.601486 5.6663604
-86.434235 84.788109 5.6003008
-91.502396 85.496918 5.6673088
-90.600914 85.253532 5.7585297
-89.909531 85.217804 5.8888011
-88.710426 85.224518 5.864068
-88.288765 85.221954 5.9499984
-87.509262 85.454231 5.7020721
-87.318878 85.192627 5.8661709
-86.790642 85.16552 5.6239409
-86.226219 85.403305 5.9440451
-88.73217 85.515694 5.8042836
-87.647354 85.639252 5.6783595
-87.303238 85.671066 5.8111725
-86.695038 85.88591 5.8965569
-86.362892 85.619705 5.8473845
-85.823189 85.759193 5.7932305
-85.382538 85.797134 5.6301389
-87.293007 86.022064 5.6792421
-86.427567 86.049683 5.7559714
-85.81311 86.141006 5.9033508
-85.469879 86.170105 5.6954131
-89.156487 84.377945 6.0277042
-88.510101 84.461479 6.0162826
-89.849548 84.955238 6.0509505
-89.291977 84.643509 6.0505857
-88.544106 84.614876 6.0467048
-87.359505 84.691811 6.0172215
-89.851936 85.174286 6.0132198
-88.661598 85.106125 6.0668645
-88.412605 85.456589 6.0446997
-87.881958 85.296509 6.1354961
-87.157547 85.336105 6.1265907
-86.853828 85.176582 6.0613632
-86.386139 85.31057 6.1053658
-85.560715 85.389618 6.1327643
-88.028908 85.502815 6.0140452
-87.622513 85.582771 6.1512113
-87.21183 85.597702 6.1804833
-86.70266 85.817612 6.1318765
-86.328346 85.840561 6.0533757
-85.933571 85.891479 6.1942749
-86.683075 86.114403 6.1416364
-86.293098 86.168411 6.1292782
-85.932335 86.357063 6.0980659
-85.333954 86.420616 6.1851034
-76.447243 83.430481 -1.1881526
-73.561073 83.445801 -1.0743053
-73.159866 83.303764 -1.1797889
-72.561935 83.296455 -1.0926017
-72.219727 83.282974 -1.1751775
-72.135742 83.546501 -1.0604924
-76.096771 54.845955 -0.53043342
-76.325058 55.79731 -0.66593045
-68.942635 57.142979 -0.79447538
-69.637352 57.987057 -0.57392108
-69.150192 58.034233 -0.55553025
-70.792969 58.574909 -0.61379653
-74.191452 82.83931 -0.87001175
-73.822021 82.820572 -0.89128536
-77.629135 83.088013 -0.62860221
-77.052246 83.435265 -0.83650589
-73.799957 83.330139 -0.84303331
-72.623703 83.462143 -0.69355673
-72.357368 83.443451 -0.66610992
-74.026352 83.808426 -0.98195565
-73.592575 83.549263 -0.93147826
-73.367966 83.954704 -0.84902912
-72.380585 83.647583 -0.75434828
-72.891487 120.85386 -0.77097535
-83.782524 124.20699 -0.978432
-70.434639 126.84886 -0.91228688
-77.811615 47.987022 -0.21442612
-77.782921 48.012531 -0.2890352
-78.978188 51.398735 -0.35905477
-76.19429 55.341347 -0.36190146
-76.312904 55.762241 -0.34452161
-75.806526 55.563885 -0.43660158
-75.698914 56.331272 -0.43619713
-75.186295 56.14642 -0.39146346
-70.897942 56.289722 -0.46377745
-75.601906 56.994965 -0.42310253
-75.412163 57.317245 -0.41281039
-74.701981 57.341579 -0.33233729
-69.478142 57.552597 -0.45730704
-64.904816 57.811256 -0.073585622
-72.085434 58.313175 -0.20953181
-66.816185 58.249252 -0.16401979
-65.733589 58.325935 -0.13910453
-67.622849 59.799953 -0.23397596
-66.744766 59.732986 -0.22423875
-67.217682 60.188854 -0.16045327
-66.864586 60.284374 -0.17795579
-69.122757 60.913361 -0.23484439
-68.361137 60.559341 -0.11579539
-67.717361 60.679798 -0.18693502
-67.264725 60.903111 -0.14260705
-66.934212 60.709465 -0.15382215
-69.078293 61.195526 -0.2208765
-67.176865 61.153069 -0.15174749
-66.916618 61.317554 -0.16863781
-66.958565 61.561508 -0.11192624
-64.85305 62.169647 -0.067215778
-84.505272 81.533638 -0.43788707
-79.080055 82.360168 -0.21971808
-79.563393 82.675461 -0.11614355
-79.109482 82.737946 -0.34087458
-78.749214 82.544594 -0.28267378
-76.060661 82.948044 -0.2515839
-79.692085 83.306221 -0.32505879
-79.345131 83.134926 -0.47455272
-78.312241 83.623032 -0.47407299
-75.433388 83.519447 -0.26473463
-73.917099 83.98317 -0.063177943
-79.791237 84.242294 -0.26785758
-75.896622 84.512115 -0.17868826
-68.122002 47.67992 0.31683904
-67.565514 47.973412 0.093966804
-66.09346 47.928593 0.01329326
-67.259972 48.811813 0.038106978
-65.008904 49.42836 0.025572967
-64.940582 49.427563 0.0044075157
-68.623451 50.345741 0.030684337
-65.797554 54.020546 0.052297685
-84.725525 54.849194 0.040256627
-63.828957 54.869942 0.089993589
-67.372864 58.978901 0.095709361
-67.140526 60.983715 0.08820872
-66.977264 61.451107 0.03024655
-64.832802 62.08107 0.0010393233
-64.286568 62.720959 0.056122728
-83.322777 81.949173 0.44094327
-79.76506 84.30407 0.094630606
-79.474548 84.070457 0.1128605
-74.661385 85.594765 0.25733584
-75.865166 82.442429 1.1583402
-72.274414 85.680038 1.4747927
-72.145119 88.305298 1.2743512
-71.862267 88.267441 1.3170166
-72.122017 88.665596 1.4277167
-63.955936 85.476219 1.7069833
-72.2388 87.83857 1.9415181
-71.712494 87.938377 1.5896455
-72.107956 88.255379 1.756156
-71.75827 88.284195 1.873263
-71.470047 88.342751 1.9028896
-70.504883 88.497185 1.5579609
-81.855255 80.756485 2.3977416
-79.572113 82.487892 2.4508717
-79.702827 82.537117 2.4413421
-82.001961 83.724434 2.1203296
-74.156288 87.429375 2.4147158
-72.300316 87.947975 2.3726633
-71.874779 87.83683 2.2915807
-72.196335 88.147087 2.2818186
-71.885368 88.266296 2.1671283
-71.422226 88.406975 2.1868038
-72.120918 88.540268 2.480056
-71.721519 88.599396 2.0822673
-70.598244 88.650642 2.1646938
-73.946915 87.336716 2.5224111
-73.770065 87.793228 2.9442863
-72.075516 87.814171 2.8629653
-71.939201 87.782104 2.7666695
-73.744156 88.087914 2.9348407
-72.154076 88.192955 2.7818692
-71.933434 88.291229 2.6374483
-71.095863 88.187737 2.7772789
-69.931671 88.417252 2.7688789
-72.144852 88.567551 2.8215575
-75.82975 87.673149 3.0169294
-73.689568 87.677406 3.1299014
-72.113289 87.879646 3.0762405
-71.931007 87.886093 3.1752264
-72.155869 88.178841 3.0794783
-71.917679 88.107269 3.1388812
-69.472733 88.197037 3.1757765
-72.178543 88.609848 3.0211244
-71.917274 88.559769 3.2052879
-75.843079 87.33107 3.5944149
-71.914719 87.844215 3.6507747
-71.978714 88.715881 4.1854329
-84.287582 85.854599 5.4361982
-78.854523 86.905502 5.9004555
-78.366768 86.983238 5.5891933
-77.392654 88.630547 5.9059772
-67.131813 89.790855 5.8481212
-66.842262 89.615631 5.9930558
-64.509193 89.976738 5.6881089
-64.352303 89.961792 5.8911471
-64.594017 90.083961 5.6824741
-64.336731 90.009331 5.800241
-64.672935 90.623962 5.6045394
-64.599533 91.10862 5.7605033
-83.757889 85.328857 6.1797194
-81.649994 85.849258 6.4280558
-82.838448 86.800285 6.3983326
-82.021172 86.657104 6.4827576
-81.029663 86.881836 6.2022219
-82.226669 87.052292 6.4922156
-81.054771 87.222382 6.2392044
-80.783813 87.155518 6.0946236
-79.310417 87.441734 6.3649387
-78.678246 87.091751 6.0638704
-79.27964 87.520004 6.2113099
-77.253456 87.874596 6.0757728
-71.645088 88.60054 6.3550367
-66.687294 89.716675 6.1821051
-66.353432 89.761993 6.467658
-65.933983 89.92701 6.4467235
-64.57811 89.943474 6.4089122
-66.845596 90.120239 6.259306
-66.016785 90.137665 6.4964757
-65.965721 90.05069 6.4711218
-65.042862 90.334755 6.4646335
-64.605049 90.205078 6.418818
-64.385399 90.199936 6.2816687
-64.676453 90.611717 6.3179278
-82.050842 86.797585 6.5261645
-77.159531 87.208649 6.7087622
-75.724121 87.360847 6.7326493
-74.851822 87.499214 6.7354212
-75.605446 87.541725 6.6359715
-74.879837 87.593636 6.7527547
-73.30175 87.877808 6.7339725
-71.844292 87.941971 6.6034536
-77.181496 88.306557 6.6441846
-73.533783 88.33709 6.8040214
-73.367485 88.252701 6.7986932
-72.229408 88.300957 6.7181807
-71.912262 88.473373 6.9944611
-73.575096 88.702827 6.7839189
-73.427391 88.631157 6.7984428
-72.537346 88.890198 6.7426085
-72.331024 88.756012 6.7768908
-71.299156 88.662247 6.9880676
-72.557732 89.097435 6.8658147
-72.316284 89.044891 6.7172771
-70.604378 89.367363 6.8963752
-70.33905 89.219826 6.8943501
-69.242455 89.134117 6.9561524
-67.138832 89.699821 6.8303413
-66.699013 89.849884 6.8509026
-66.080299 89.603233 6.5536327
-65.84269 89.814186 6.635098
-65.050636 89.94529 6.8173161
-64.583534 89.919731 6.5095873
-66.884781 90.344452 6.5317917
-66.255676 90.049843 6.5204859
-65.746597 90.175697 6.6929412
-65.06263 90.288948 6.5679321
-64.559738 90.138138 6.5066018
-65.04393 90.793007 6.5232821
-64.864006 90.631134 6.5317163
-73.272964 88.392822 7.1000886
-72.867836 88.402161 7.2958856
-72.094505 88.468361 7.1364055
-71.589577 88.430099 7.0588236
-73.314224 88.504517 7.1724443
-72.142319 88.702522 7.1699538
-71.718407 88.711433 7.1155128
-71.238541 88.967033 7.0719848
-70.863754 88.898926 7.0846624
-70.499001 88.897865 7.0937195
-71.110779 89.062851 7.0609937
-70.944542 89.123734 7.0368299
-70.283195 89.133018 7.0443769
-49.147297 68.1782 -1.1473814
-48.228252 68.469902 -1.0999622
-46.584873 68.12545 -1.2883085
-48.843895 68.779587 -1.1908478
-48.405872 68.557083 -1.2190498
-49.095692 69.513268 -1.2220876
-44.59882 69.708313 -1.0599982
-43.606201 70.235008 -1.0555625
-42.754417 70.631409 -1.0801072
-43.925503 71.367706 -1.0547373
-49.233566 71.582329 -1.0195013
-45.316875 72.077568 -1.0599236
-43.065296 133.46835 -1.0632043
-48.04578 65.452644 -0.58843923
-48.234848 65.65934 -0.70860785
-47.892799 65.805923 -0.6681537
-49.09684 66.076515 -0.53292328
-48.163143 66.219795 -0.70939809
-49.918446 66.788231 -0.70741796
-49.253952 66.854202 -0.56291562
-48.838379 66.756828 -0.6229192
-51.247726 67.4076 -0.54859954
-49.903793 67.241432 -0.6204223
-49.422264 67.319908 -0.50105399
-48.265472 67.403954 -0.5806132
-50.071152 67.750755 -0.576464
-49.649307 67.764084 -0.75517333
-49.229797 67.60128 -0.54440665
-48.588497 67.668488 -0.58979672
-48.178951 67.892891 -0.60813642
-47.715435 67.783485 -0.6403712
-49.09623 68.493782 -0.58173829
-48.518097 68.116982 -0.58104241
-48.251953 68.341553 -0.57046729
-47.254627 68.078003 -0.70903403
-46.689495 68.051605 -0.63310063
-50.064899 68.929543 -0.93986398
-48.774323 68.805031 -0.97555149
-48.3237 68.52462 -0.73175633
-47.559391 68.653442 -0.65909415
-47.242142 68.794785 -0.97655988
-46.72522 68.518707 -0.63079381
-45.558079 68.782043 -0.52399856
-45.292976 68.790794 -0.58694839
-43.16378 68.835732 -0.67250389
-50.130486 69.117157 -0.92276812
-49.887737 69.346535 -0.86018974
-47.763237 69.305519 -0.68184787
-47.158897 69.288109 -0.53099853
-46.06155 69.29187 -0.75463659
-45.566048 69.291405 -0.61964065
-45.371929 69.093819 -0.57531267
-44.7607 69.317032 -0.682024
-44.083878 69.460365 -0.68728393
-42.771458 69.38855 -0.60940677
-49.403126 69.798988 -0.78680259
-46.372185 69.744766 -0.62311751
-45.756611 69.87616 -0.68325067
-44.70158 69.864151 -0.60686475
-44.298401 69.845352 -0.62650585
-43.714245 69.519943 -0.60743946
-43.19651 69.777374 -0.71685588
-49.38324 70.181221 -0.8898375
-48.453705 70.303886 -0.72009236
-47.839924 70.142754 -0.58970153
-46.290134 70.328682 -0.80038351
-45.96336 70.106781 -0.793051
-44.814453 70.041405 -0.99588317
-44.116386 70.122688 -0.60554761
-43.725983 70.105034 -0.98130995
-43.217083 70.286118 -0.94830012
-46.237022 70.89566 -0.75207382
-45.710663 70.678345 -0.56877983
-45.070473 70.888504 -0.72821915
-44.596542 70.605774 -0.78075969
-44.460815 70.840538 -0.69771022
-43.919842 70.857178 -0.74323231
-62.146122 71.449348 -0.51285696
-45.861603 71.146858 -0.64806163
-45.068726 71.301201 -0.68306535
-44.600822 71.314919 -0.69308662
-44.161068 71.192551 -0.64077348
-46.120911 71.766106 -0.63657337
-45.671371 71.734947 -0.78192896
-45.307774 71.772537 -0.6822055
-44.839149 71.6866 -0.63450187
-44.279182 71.792557 -0.63011056
-42.851002 71.970276 -0.88136786
-50.184238 72.355232 -0.69926387
-46.969498 72.474266 -0.62703276
-46.203362 72.232864 -0.6747396
-45.829597 72.443573 -0.78255105
-45.403763 72.067581 -0.67056471
-44.703564 72.085609 -0.66183937
-43.650955 72.432098 -0.70798182
-43.253937 72.225746 -0.86653388
-51.82608 72.616165 -0.6101923
-46.84 72.791939 -0.62905198
-46.265808 72.60672 -0.66975415
-45.073326 72.866074 -0.76715904
-43.484406 72.579926 -0.71169829
-46.225418 73.358368 -0.70879018
-45.791595 73.30513 -0.73537552
-45.083729 73.216743 -0.72596097
-44.114544 73.233292 -0.87233889
-62.051121 85.655647 -0.56922054
-49.195244 122.47261 -0.79747951
-53.722462 126.16762 -0.73132682
-55.76683 57.329266 -0.2318397
-50.320019 63.840324 -0.19055319
-50.756081 64.205933 -0.19992134
-55.239849 64.757034 -0.046755031
-56.210144 65.066284 -0.18333377
-50.176762 65.174011 -0.26727119
-49.193047 65.236893 -0.31942344
-48.911644 65.228935 -0.22205749
-50.081959 65.690697 -0.33029833
-49.935921 65.839966 -0.43693364
-48.579582 65.696655 -0.38792181
-48.115421 65.752274 -0.26323983
-47.755299 65.696693 -0.38336447
-50.605576 66.479462 -0.46819636
-50.177658 66.401436 -0.41715702
-49.863602 66.278275 -0.41662332
-49.067307 66.116951 -0.34650898
-48.79578 66.446152 -0.44599226
-48.122971 66.295448 -0.36584017
-47.778111 66.16053 -0.32832476
-56.11591 66.606178 -0.17931515
-50.157063 66.760284 -0.39448026
-49.009548 66.733948 -0.37951216
-48.682144 66.513962 -0.41964293
-46.634232 66.736847 -0.34672046
-46.144623 66.538757 -0.33348918
-45.73349 66.728645 -0.39285699
-50.565968 67.272171 -0.23339225
-49.263458 67.350426 -0.39063478
-48.542049 67.000633 -0.42653576
-48.304535 67.27507 -0.35061243
-47.117413 67.361076 -0.2764073
-46.878559 67.084877 -0.32715496
-55.311386 67.841019 -0.14165689
-51.106033 67.74765 -0.41343293
-50.914547 67.779976 -0.27811706
-50.144611 67.729828 -0.36042625
-49.654991 67.689804 -0.36731312
-49.461231 67.671684 -0.37227112
-48.75201 67.719658 -0.32695991
-48.281155 67.731125 -0.34411657
-47.969086 67.509872 -0.27781221
-47.188972 67.72673 -0.38952574
-46.901405 67.86245 -0.37861258
-45.599213 67.885048 -0.39320543
-51.308788 68.059982 -0.18581821
-50.537949 68.261787 -0.44222245
-50.392246 68.148567 -0.28716579
-49.273895 68.024071 -0.47684726
-48.247074 68.36158 -0.31846261
-45.75367 68.323837 -0.33675534
-56.605278 68.756508 -0.28928792
-50.749859 68.650116 -0.35980102
-50.237885 68.647476 -0.23628759
-49.015003 68.844734 -0.4654389
-48.530762 68.800919 -0.14452922
-48.333107 68.859436 -0.29084405
-47.630753 68.879013 -0.42381075
-47.060482 68.715858 -0.38649738
-46.833485 68.673653 -0.35657698
-46.168388 68.572617 -0.27020225
-45.717773 68.854965 -0.27771538
-45.280758 68.736595 -0.21603778
-44.748447 68.783478 -0.22012867
-43.855316 68.898582 -0.44262981
-42.783882 68.773727 -0.36109573
-56.989918 69.034355 -0.41550806
-50.911343 69.282471 -0.27779037
-50.224724 69.28756 -0.37073582
-49.625568 69.219048 -0.23294741
-49.267071 69.425438 -0.46903265
-47.828629 69.202827 -0.15265991
-46.181023 69.096657 -0.37319651
-45.511723 69.029221 -0.46412396
-45.315487 69.270905 -0.49299294
-43.103683 69.316696 -0.43067336
-50.463631 69.69857 -0.38523802
-47.265285 69.723564 -0.26396701
-43.446621 69.693047 -0.31450373
-50.751762 70.262253 -0.28959605
-49.017715 70.211014 -0.43267912
-46.417469 70.378563 -0.49355385
-44.939796 70.071747 -0.17750637
-45.443546 70.720894 -0.36944464
-43.233875 70.988052 -0.041845649
-53.216522 71.013588 -0.22761212
-51.105415 71.122749 -0.25652418
-45.888798 71.111465 -0.48809481
-43.019161 71.188942 -0.41455892
-46.233223 71.935722 -0.068421952
-63.35569 85.444115 -0.41331792
-63.673302 86.214661 -0.3155815
-63.287518 86.198822 -0.42293355
-55.66938 86.359535 -0.29160401
-45.701954 103.14455 -0.42721629
-62.120747 50.820145 0.32038707
-60.33886 56.067841 0.022511361
-58.41114 56.495609 0.028122425
-57.17717 63.80381 0.19672523
-55.347195 64.135574 0.060807806
-52.834274 64.010338 0.010685724
-50.602783 64.838066 0.019881163
-51.053162 65.571663 0.068557426
-51.312649 66.663651 0.12533222
-56.233707 67.155342 0.028385032
-57.500492 85.851471 0.031624496
-46.83786 97.263474 0.0014986747
-48.076962 93.789574 4.9003935
-52.422119 92.847458 5.4286256
-50.160873 93.373894 5.3214154
-50.274681 93.723976 5.4669061
-49.839661 93.66468 5.3949423
-49.790363 94.087456 5.3409629
-59.786667 89.876633 5.9128604
-59.928261 90.293892 5.952662
-54.667152 90.91539 5.672451
-57.285923 91.293091 5.9537554
-55.046986 91.172462 5.9538574
-54.902069 91.426895 5.7790289
-53.568123 91.254639 5.9649887
-57.40987 91.58416 5.927259
-55.785797 91.750999 5.9884281
-55.349918 91.629807 5.9603496
-54.943714 91.858665 5.899262
-52.899971 91.560806 5.6525345
-54.803505 92.275375 5.7800336
-50.046146 93.30426 5.5264778
-49.822498 93.402435 5.6966977
-47.861404 93.179947 5.912375
-44.530056 93.404182 5.9454694
-50.049152 93.73008 5.6663384
-49.792603 93.514626 5.8933024
-47.897141 93.709213 5.7834935
-44.442741 93.792664 5.9200692
-43.876556 93.940315 5.8523855
-43.871876 94.458649 5.9733415
-43.877148 94.516846 5.9635525
-62.799362 90.340736 6.3548541
-59.107746 90.201561 6.0810828
-63.667725 90.853775 6.4275837
-63.217762 90.787537 6.3553615
-62.701973 90.946892 6.2652135
-60.570469 90.956383 6.0340409
-60.0354 90.665321 6.0373502
-59.99279 90.770035 6.0507278
-59.369411 90.824814 6.0328102
-58.893829 90.911278 6.1937752
-55.818943 90.822388 6.0829868
-61.94733 91.249298 6.4032698
-61.405766 91.093468 6.0927277
-57.244606 91.375931 6.0681758
-56.567497 91.38887 6.3082886
-57.206543 91.581413 6.1072659
-56.031334 91.522591 6.4013324
-55.775208 91.752548 6.1040139
-55.443935 91.598595 6.0290508
-57.236683 92.016258 6.1100202
-56.769032 92.109619 6.2365427
-55.663403 92.3312 6.2813168
-55.366661 92.263069 6.2693982
-55.207268 92.522255 6.338325
-54.721519 92.631538 6.2140679
-50.05431 92.717278 6.2757969
-50.578281 93.464539 6.2574692
-49.509609 93.354851 6.2017989
-49.483177 93.452026 6.0291834
-44.580128 93.261292 6.109386
-44.476963 93.195915 6.2310948
-49.57935 93.823509 6.1052799
-48.290558 93.790329 6.143919
-43.905609 94.30407 6.0642524
-45.166443 86.690926 6.804841
-45.27729 88.246071 6.9139094
-63.399914 90.605606 6.5138435
-46.75948 72.602913 12.23653
-40.293617 70.949081 -1.1312977
-40.233891 71.234108 -1.1013891
-40.781639 71.7033 -1.1548795
-40.426723 71.656601 -1.0162284
-42.302269 72.317696 -1.1362606
-40.134453 72.667465 -1.1945198
-38.3284 72.711754 -1.0355573
-38.907887 73.282669 -1.0361141
-41.735718 73.841995 -1.4546673
-38.926521 74.728531 -1.1509302
-39.411724 67.867722 -0.5712139
-41.125256 68.340935 -0.52896863
-40.375607 68.307167 -0.5900833
-41.183609 68.954353 -0.80550385
-39.165417 68.873398 -0.61834359
-40.811188 69.117653 -0.70590782
-40.035763 69.214211 -0.72303438
-39.81216 69.168594 -0.66841859
-38.955536 69.120316 -0.54737449
-40.749744 69.767029 -0.76618481
-40.006264 69.640266 -0.59804726
-39.956043 69.801163 -0.68069518
-38.930447 69.778259 -0.60348046
-40.300354 70.321503 -0.83083737
-38.648693 70.230347 -0.61646891
-38.126949 70.255272 -0.54258287
-37.749195 70.345184 -0.8428396
-36.694935 70.372345 -0.72993839
-36.469521 70.470383 -0.64738244
-32.829659 70.133423 -0.5108102
-31.834517 70.240379 -0.6142863
-40.615555 70.754105 -0.77916539
-40.400509 70.833229 -0.8767733
-38.644779 70.91497 -0.89889497
-38.314251 70.566551 -0.78162336
-37.32254 70.704269 -0.66987938
-36.645107 70.723587 -0.71015388
-36.334473 70.720139 -0.60530239
-33.170189 70.83889 -0.56751293
-32.285511 70.560745 -0.56540102
-31.890686 70.793892 -0.52947062
-30.520763 70.941101 -0.52416718
-30.456036 70.965668 -0.51200992
-40.399227 71.260231 -0.6866042
-39.71405 71.281227 -0.58002204
-38.227448 71.128548 -0.86251396
-37.82452 71.09079 -0.81352323
-37.104408 71.10022 -0.57122982
-36.834789 71.215034 -0.60807669
-33.199162 71.121529 -0.58605176
-31.722412 71.043381 -0.52788132
-30.819443 71.328651 -0.58007133
-30.085066 71.340782 -0.60298789
-41.405651 71.624565 -0.78641677
-40.661324 71.682961 -0.75962228
-40.286179 71.514359 -0.61537468
-39.792278 71.661469 -0.80772215
-39.380253 71.640114 -0.97082686
-38.576454 71.800499 -0.76152539
-38.396591 71.603752 -0.588893
-37.812458 71.707802 -0.69481921
-37.362614 71.698662 -0.61722523
-36.86507 71.514137 -0.56987119
-30.725985 71.852707 -0.60408354
-30.231262 71.816391 -0.57352382
-29.779716 71.7668 -0.55227274
-41.504391 72.025482 -0.93275946
-40.77969 72.355484 -0.94709176
-40.154537 72.229591 -0.8575694
-39.960777 72.233696 -0.8529526
-38.78376 72.288422 -0.75096595
-38.078133 72.296806 -0.88025248
-36.793106 72.274467 -0.73172569
-36.129395 72.20829 -0.60513812
-35.365715 72.162247 -0.74915022
-33.711163 72.302208 -0.65892446
-31.542406 72.365295 -0.52579486
-29.370781 72.351913 -0.65102315
-42.706264 72.762901 -0.88737077
-40.199795 72.78894 -0.93918461
-39.825821 72.896721 -0.95373577
-38.55732 72.652367 -0.69721282
-38.35667 72.789185 -0.80167705
-37.646343 72.869492 -0.85894674
-37.302734 72.897697 -0.73376644
-36.716881 72.78064 -0.84823602
-36.268162 72.785957 -0.68906063
-35.769997 72.607376 -0.53560245
-35.125496 72.852753 -0.70051742
-34.769432 72.966148 -0.58306384
-31.195415 72.809799 -0.63414359
-30.855743 72.940292 -0.58875585
-29.53944 72.880791 -0.56505328
-39.074696 73.14653 -0.85821062
-38.67794 73.278694 -0.80289382
-38.197529 73.21772 -0.75663418
-37.763641 73.213142 -0.80478716
-37.261513 73.23317 -0.6709038
-36.33461 73.421326 -0.54230464
-33.631481 73.180397 -0.73996371
-33.261238 73.346092 -0.7035532
-32.752861 73.136108 -0.59183514
-31.644011 73.404266 -0.57179469
-31.176462 73.347153 -0.66894615
-30.838928 73.240616 -0.57471621
-42.29129 73.764763 -0.73962587
-39.205654 73.503555 -0.92743659
-38.519569 73.728889 -0.78129357
-38.240791 73.823586 -0.72566342
-37.855148 73.556175 -0.53718448
-37.054096 73.626762 -0.55092692
-36.829613 73.780212 -0.54753637
-35.55135 73.833694 -0.64206541
-33.921928 73.654404 -0.66708034
-32.043583 73.968079 -0.65414202
-31.683146 73.800117 -0.76617247
-31.003141 73.715836 -0.66795278
-30.596371 73.807816 -0.63682747
-33.086903 74.295509 -0.64201897
-31.888556 74.077614 -0.56745535
-30.607155 74.322418 -0.63519514
-42.412228 74.540398 -0.87884372
-38.93071 74.684952 -0.55862892
-38.170998 74.80632 -0.57387692
-37.823875 74.780647 -0.65053725
-37.446228 74.949738 -0.56588817
-35.785488 74.664032 -0.67170143
-34.710056 74.898468 -0.65273738
-31.723284 74.612396 -0.73683435
-38.26778 75.20752 -0.53064954
-37.603298 75.237045 -0.50258756
-37.098988 75.145142 -0.60089511
-36.308983 75.280396 -0.66324568
-35.642296 75.003174 -0.62013346
-35.295364 75.409851 -0.59136462
-31.524237 75.363068 -0.55469394
-30.778482 75.152748 -0.64507335
-37.225983 75.684029 -0.55175644
-36.939907 75.601921 -0.59500605
-31.539951 75.656204 -0.68994254
-31.402098 75.679893 -0.7887978
-30.932476 75.868073 -0.78025615
-30.386629 75.781456 -0.64025927
-29.686239 75.731834 -0.63230246
-29.282442 75.881065 -0.71087795
-41.698505 83.35601 -0.55717993
-39.713051 83.396996 -0.56052798
-41.827824 83.621918 -0.60871238
-37.63805 83.573586 -0.59993559
-39.161701 84.775314 -0.5412035
-41.583408 68.178818 -0.30086279
-40.429771 68.232803 -0.31481332
-39.784897 68.302963 -0.18425551
-42.456482 68.837105 -0.34222513
-41.598274 68.619713 -0.24391328
-41.137543 68.701691 -0.32698447
-40.863091 68.596985 -0.30944425
-40.477215 68.584908 -0.29867145
-39.60891 68.645576 -0.36212483
-39.410316 68.795593 -0.36202386
-42.701496 69.247093 -0.25760865
-42.324528 69.297676 -0.31819382
-41.248158 69.218781 -0.00082407036
-40.573517 69.367699 -0.43936905
-40.050377 69.183395 -0.38054368
-39.771851 69.250473 -0.34248701
-39.132694 69.098145 -0.36542425
-40.514648 69.920647 -0.46992666
-40.233959 69.703705 -0.42854482
-39.751186 69.644165 -0.31732261
-39.304199 69.785316 -0.32342997
-38.766403 69.581802 -0.37246263
-37.340237 69.97261 -0.25579479
-32.360161 69.961067 -0.36200166
-40.817265 70.362282 -0.26089823
-40.49728 70.129631 -0.39403403
-38.748428 70.234398 -0.29788834
-37.617874 70.349426 -0.42946911
-37.274391 70.20224 -0.37067977
-36.952076 70.32235 -0.40511712
-36.31329 70.200409 -0.25863352
-35.875134 70.23259 -0.23911579
-35.238743 70.135628 -0.36443332
-34.799335 70.26683 -0.30323073
-34.327255 70.123077 -0.10461605
-33.728966 70.33326 -0.23518232
-33.238201 70.300514 -0.22476192
-32.772141 70.261406 -0.20652701
-32.208096 70.299294 -0.29681626
-31.684509 70.250748 -0.33010551
-30.353798 70.322006 -0.1915281
-40.752068 70.806854 -0.38426268
-40.361477 70.607246 -0.25195405
-39.234516 70.763519 -0.32688805
-38.539547 70.898949 -0.31329393
-38.174442 70.85791 -0.43667215
-37.789337 70.734772 -0.3679356
-37.286621 70.814041 -0.41481522
-36.848034 70.8806 -0.40183723
-36.195198 70.785782 -0.39375606
-35.811993 70.904381 -0.37768638
-35.179722 70.578201 -0.23219061
-34.76012 70.849594 -0.26142713
-34.358303 70.701981 -0.27994868
-33.725536 70.795303 -0.31850943
-33.312683 70.792725 -0.29843181
-32.778042 70.876717 -0.28260276
-32.185097 70.678841 -0.29844233
-31.752949 70.645782 -0.32591933
-30.882441 70.640121 -0.077275604
-42.467972 71.415451 -0.40110376
-39.527004 71.267868 -0.32525256
-38.571365 71.029175 -0.35505202
-38.15797 71.345566 -0.18694629
-37.8867 71.100349 -0.37842405
-37.374382 71.173828 -0.37380007
-36.829376 71.291687 -0.28464985
-36.341946 71.224144 -0.32635117
-35.845284 71.27153 -0.41599119
-35.278748 71.148407 -0.18383467
-34.862274 71.319405 -0.37500352
-34.138649 71.207886 -0.13896534
-33.849968 71.370728 -0.14597124
-33.089111 71.299683 -0.33325145
-32.667728 71.312515 -0.36125734
-32.014717 71.418518 -0.31611022
-31.895126 71.422081 -0.29604065
-31.218643 71.363632 -0.21147349
-30.983326 71.091064 -0.22162393
-30.131214 71.18985 -0.31135386
-29.762428 71.39399 -0.40985724
-29.273254 71.336899 -0.35675052
-28.96929 71.285515 -0.43585795
-42.076813 71.953545 -0.31500277
-40.67992 71.690285 -0.34904096
-39.269382 71.736794 -0.30539742
-38.806259 71.968216 -0.43995994
-38.204407 71.656845 -0.33616322
-37.766846 71.840027 -0.40670684
-37.332645 71.866882 -0.4073143
-36.86636 71.850113 -0.33181483
-35.804935 71.817291 -0.35654023
-34.75634 71.592491 -0.28563979
-34.247166 71.719521 -0.22945802
-33.09407 71.652756 -0.30353132
-32.945435 71.58297 -0.40119833
-32.482513 71.533417 -0.25907588
-31.505823 71.885933 -0.090459228
-31.24732 71.857155 -0.22812471
-30.721218 71.800842 -0.22941869
-30.370216 71.716888 -0.41711685
-29.657906 71.701805 -0.28589189
-29.297729 71.848335 -0.32900718
-28.795097 71.695198 -0.33013344
-27.696014 71.835487 -0.40912494
-42.544556 72.008102 -0.33489951
-39.432121 72.179817 -0.23928533
-38.669636 72.24617 -0.36158109
-38.094975 72.202789 -0.43316516
-37.599632 72.062279 -0.43192339
-37.272575 72.119156 -0.40312108
-36.103027 72.414307 -0.36961591
-35.257385 72.310562 -0.18512532
-34.208504 72.150887 -0.30132785
-33.562801 72.132614 -0.48052076
-32.17561 72.287231 -0.26615939
-31.827435 72.228104 -0.34741405
-31.414381 72.128914 -0.16868103
-30.815657 72.323914 -0.29663527
-30.126684 72.420563 -0.38542217
-29.601225 72.110901 -0.38623595
-29.346771 72.11924 -0.29833063
-28.828039 72.164398 -0.40784055
-27.946404 72.048035 -0.30662605
-27.19993 72.135696 -0.3505989
-38.579388 72.668526 -0.38288137
-38.008919 72.912979 -0.28960779
-37.953709 72.895569 -0.37652433
-37.136517 72.758125 -0.38741422
-36.894539 72.620102 -0.3685002
-36.036015 72.649628 -0.46379918
-35.726719 72.765236 -0.36639023
-33.458145 72.781174 -0.21168309
-32.755981 72.882286 -0.3819643
-32.260666 72.710175 -0.44156379
-31.644043 72.815178 -0.35941622
-31.04977 72.899818 -0.16814297
-30.664501 72.863632 -0.42349124
-29.68549 72.699104 -0.36822847
-29.233692 72.752747 -0.26426163
-28.639191 72.642578 -0.38042361
-28.279099 72.503334 -0.33594388
-26.864435 72.663246 -0.2603533
-39.680294 73.337883 -0.22060002
-38.751812 73.469566 -0.43647492
-38.442772 73.396385 -0.40663326
-37.600185 73.105873 -0.37828937
-37.361183 73.266586 -0.4794949
-36.713638 73.264122 -0.35350615
-35.91798 73.01432 -0.49380347
-34.479095 73.127335 -0.39984182
-33.528053 73.089005 -0.20409556
-33.117496 73.198051 -0.45190841
-30.804413 73.259193 -0.48481846
-30.32546 73.342819 -0.20491207
-29.763235 73.155861 -0.40029424
-29.447042 73.105324 -0.45281348
-28.389801 73.303795 -0.36455083
-39.301899 73.889709 -0.37685227
-38.727661 73.648941 -0.37972084
-38.105793 73.875679 -0.48321664
-37.059814 73.747162 -0.46828413
-36.938953 73.89624 -0.39017531
-35.400307 73.900993 -0.4062098
-31.068529 73.685287 -0.4132331
-30.334789 73.548836 -0.20452243
-29.586386 73.693863 -0.3379865
-29.417826 73.832108 -0.36895013
-28.570139 73.789062 -0.4647077
-28.248665 73.736816 -0.35223505
-27.803425 73.5326 -0.24411541
-27.208361 73.583908 -0.35711375
-26.748865 73.671066 -0.3423309
-41.408939 74.226135 -0.47831321
-39.319668 74.206894 -0.3565307
-38.619202 74.177887 -0.4307918
-38.395191 74.358917 -0.27764827
-29.003109 74.01329 -0.37776303
-28.575926 74.110519 -0.41978392
-28.101837 74.214012 -0.34284544
-27.765974 74.1446 -0.3117595
-39.689583 74.993156 -0.49496183
-38.21257 74.730667 -0.38560885
-37.869698 74.786957 -0.49087366
-37.104576 74.590019 -0.26993015
-33.988693 74.830086 -0.48532695
-31.597918 74.975807 -0.46328789
-29.379133 74.706848 -0.22814424
-28.799704 74.549576 -0.45018762
-28.339352 74.779785 -0.46837324
-27.61256 74.525002 -0.34275305
-27.161079 74.703484 -0.35159627
-26.743996 74.92926 -0.17900206
-23.802813 74.570755 -0.12628643
-22.920147 74.634354 -0.19293272
-39.664604 75.103439 -0.45349753
-38.597435 75.228409 -0.43995738
-38.404987 75.236717 -0.40326729
-33.913925 75.164589 -0.44200885
-31.557207 75.332214 -0.39112079
-31.439289 75.386612 -0.28489164
-29.514872 75.197456 -0.36433926
-29.464943 75.279938 -0.39452949
-28.702063 75.347206 -0.30968031
-28.384214 75.07283 -0.38679019
-26.739288 75.438362 -0.28642544
-39.818039 75.97525 -0.32070985
-38.849457 75.837814 -0.2961846
-37.296646 75.569946 -0.44186109
-35.852779 75.534477 -0.45497718
-31.825035 75.521965 -0.4844923
-29.08478 75.990143 -0.44925255
-28.733641 75.857811 -0.36896992
-28.019505 75.665977 -0.38634846
-28.640682 76.284081 -0.42830825
-28.274883 76.343605 -0.4806655
-41.097927 83.211105 -0.47899288
-39.429901 83.474632 -0.44510064
-39.458717 83.531815 -0.45029786
-40.777111 84.17038 -0.31434381
-41.010406 84.640053 -0.49052531
-39.905048 85.789986 -0.47269225
-24.116066 86.288406 -0.45392543
-23.854919 86.256027 -0.44000727
-23.955263 86.996445 -0.41690934
-30.609209 92.741798 -0.20425577
-26.975708 94.528564 -0.3467527
-34.473831 70.551498 0.031147778
-33.642155 71.238274 0.087374851
-30.657547 71.658836 0.10076954
-29.692478 71.673866 0.044102434
-26.263723 72.389061 0.051713787
-30.821163 74.31665 0.0094294129
-22.122032 78.575249 0.25196287
-32.507107 95.278183 0.33292833
-24.200552 97.966164 0.83956838
-24.028419 98.003777 0.90881628
-23.931124 98.05703 0.88594866
-40.308777 88.098793 1.015494
-41.779495 90.429695 1.3902471
-27.508667 97.255333 1.3802862
-24.224802 97.920265 1.2102568
-23.970226 97.906197 1.33991
-23.957462 98.026566 1.1414529
-21.925484 98.101051 1.2982225
-36.089577 88.552673 1.9658806
-35.936619 88.601402 1.9441843
-35.326012 90.003937 1.512224
-29.4678 91.917656 1.7146765
-26.67523 97.329239 1.9304819
-26.656015 97.52626 1.9879669
-24.125511 97.831604 1.8220491
-23.984026 97.856895 1.7429287
-23.977585 98.054237 1.9804113
-42.050762 85.758522 2.4598835
-26.828526 97.391449 2.0293062
-25.780182 97.342995 2.3813009
-25.307211 97.417801 2.4756479
-24.118591 97.448021 2.3789163
-25.560398 97.55481 2.4094615
-24.127731 97.706802 2.3122544
-23.985981 97.751541 2.24717
-23.240664 97.984718 2.4308059
-22.675499 97.65609 2.4407887
-22.243093 97.802368 2.0595331
-24.229231 98.100555 2.4708092
-23.948318 98.02636 2.2227156
-23.244259 98.066246 2.3038635
-38.783909 86.968018 2.7846739
-25.27284 97.272339 2.5592802
-24.120396 97.456505 2.5652447
-25.087765 97.719398 2.5463526
-24.167864 97.81028 2.6496363
-23.188623 97.989525 2.6564014
-24.240116 98.071381 2.7918217
-23.831367 98.061249 2.9014273
-23.190878 98.086266 2.6374412
-24.084667 97.922745 3.3030951
-23.946955 97.881096 3.0525072
-23.776928 98.145004 3.1194475
-23.901112 97.894516 3.537559
-41.792282 93.493607 5.8645916
-41.790878 93.669189 5.7256589
-42.266609 94.495209 5.935955
-41.778568 94.408714 5.8891392
-40.355705 94.335426 5.9004264
-39.679092 94.144096 5.9251523
-39.241497 94.242836 5.8491168
-38.788502 94.234627 5.756494
-42.083496 94.795578 5.8944368
-41.902313 94.744881 5.8822813
-40.264309 94.861046 5.8878293
-39.839447 94.82193 5.8556428
-39.168728 94.766457 5.8978639
-42.023499 95.022949 5.9047718
-41.879196 95.046791 5.9086175
-40.358566 95.075218 5.8461604
-39.267735 95.216431 5.8495536
-38.88332 95.413918 5.7974195
-38.277802 95.317482 5.7187624
-37.7178 95.389641 5.8334274
-38.330162 95.591827 5.9062777
-34.061531 96.769974 5.5457745
-33.915195 96.861298 5.760725
-31.08799 96.842072 5.5388613
-34.123867 97.13488 5.8565669
-33.896992 97.121696 5.8828654
-31.604715 97.215637 5.824398
-31.444778 97.301895 5.7275801
-31.583426 97.558434 5.8018394
-40.552528 93.902847 6.0591731
-42.129902 94.286659 6.0403967
-41.625381 94.123817 6.051322
-40.194675 94.440765 6.0591273
-39.19128 94.273048 6.2184815
-42.024204 94.982613 6.0163012
-41.747791 94.830734 6.1091204
-41.179321 94.91925 6.2220607
-40.266098 94.905739 6.1052003
-39.733974 94.719093 6.0710311
-41.884876 95.029282 6.0577612
-41.102928 95.193329 6.2576823
-40.677212 95.47789 6.3608294
-40.237007 95.021973 6.2592363
-39.812248 95.299591 6.3351912
-39.310509 95.369019 6.2083068
-38.811871 95.468353 6.3237543
-35.766926 95.14669 6.4497762
-39.555714 95.586304 6.1487699
-39.299274 95.673233 6.2312932
-38.835167 95.686172 6.3718858
-37.880058 95.722977 6.3954277
-35.191418 96.467125 6.4956155
-33.609749 96.354195 6.2117596
-35.765934 96.638229 6.4616261
-34.216297 96.82193 6.2786083
-33.87989 96.798126 6.1902637
-32.316841 96.660774 6.1785717
-31.564201 96.603539 6.0809188
-34.015739 97.021141 6.082437
-33.840473 97.124168 6.2807293
-31.184807 97.586792 6.2396851
-28.52006 97.562233 6.4794693
-28.482967 97.859245 6.4294124
-26.579998 97.899139 6.2681503
-26.467819 97.790947 6.3780427
-25.628239 97.579773 6.3781157
-24.16316 97.85186 6.4232125
-26.361139 98.333191 6.375586
-24.116165 98.080284 6.4190025
-23.700428 98.159454 6.3164263
-23.411707 98.110237 6.2029157
-22.613358 98.537384 6.3967433
-22.325977 98.734116 6.3193269
-35.826199 95.784973 6.5680408
-35.013634 96.304108 6.5762138
-34.674923 96.422897 6.5435667
-34.567486 96.898102 6.5492659
-34.346859 97.058952 6.5469122
-33.525372 97.02552 6.5502534
-27.095547 97.384857 6.803236
-27.132975 97.583534 6.8228254
-26.200012 97.732407 6.7033591
-24.200413 97.928268 6.5547075
-23.868004 97.987404 6.5667229
-26.509727 98.415985 6.5207958
-26.41535 98.235748 6.5774598
-25.746061 98.139328 6.9535279
-24.515261 98.327087 6.5591145
-24.242544 98.267822 6.7490816
-23.903105 98.16864 6.6587338
-23.312904 98.234238 6.6642704
-22.588541 98.361061 6.9893446
-24.330578 98.724609 6.6471891
-23.972212 98.537323 6.8593755
-23.135891 98.673759 6.949791
-22.554478 98.819283 6.9296584
-21.982737 99.055511 6.739677
-23.406853 97.877975 7.1881604
-25.646961 98.1492 7.1632867
-24.630018 98.383476 7.1085119
-23.875969 98.125496 7.0375891
-23.419186 98.043274 7.2583361
-23.619921 98.517288 7.0310278
-23.129578 98.961128 7.022481
-22.898767 98.690857 7.029768
-22.163132 93.117546 11.841076
-21.530725 87.245483 -0.67863464
-21.049461 94.083534 -0.62638539
-16.722704 94.750168 -0.56510764
-4.1897254 97.190559 -0.53905928
-21.426971 126.2289 -0.633838
-18.271486 132.92523 -0.67714053
-15.045422 94.09333 -0.41027403
-17.046463 95.23539 -0.30961972
-15.648381 95.325401 -0.35943571
-15.371385 95.278412 -0.36513081
-15.406988 95.527847 -0.34334111
-12.786292 95.827797 -0.44689459
-5.5848665 95.901459 -0.29075426
-16.153784 96.36129 -0.014941443
-5.0600333 97.241653 -0.25841373
-4.9802256 97.215683 -0.23311692
-4.2409692 97.459587 -0.1927558
-1.2638234 97.131516 -0.38907763
-2.8293369 97.887413 -0.14272815
-2.3862917 97.786415 -0.22497262
-1.1006242 97.68222 -0.28213128
-0.65952039 97.88916 -0.2883426
-0.56319934 98.112411 -0.13904133
-18.326834 109.78487 -0.4247072
-20.911814 110.57529 -0.49088493
-20.447031 111.26311 -0.46776631
-20.290623 111.61311 -0.47806561
-7.4029479 97.081223 0.23398042
-5.0490637 97.236847 0.016680088
-4.752286 97.695023 0.051681757
-2.8833351 97.828812 0.12900549
-1.1312612 98.328285 0.066509105
-0.75962436 98.285728 0.10232401
-2.7983818 98.838707 0.11185022
-2.7708137 99.015816 0.065265179
-2.0125308 99.66436 0.044806492
-18.097818 94.262093 1.2498692
-17.828308 94.904175 1.3756609
-19.927881 98.360413 1.2986679
-12.028538 100.84044 4.7551327
-11.701832 100.91135 4.7329888
-11.480206 100.97065 4.7483683
-10.875465 100.96807 4.8077064
-11.513046 101.30672 4.7239957
-10.571917 101.01694 4.8646469
-10.203586 101.20872 4.9368324
-9.7433205 101.19809 4.9295216
-2.3862002 102.75928 4.990283
-2.2595735 103.04677 4.9651351
-17.573204 100.04155 5.3791304
-16.674191 100.35657 5.2189159
-16.389669 100.35942 5.2975054
-15.745051 100.4642 5.3059711
-9.8061714 100.9162 5.2540722
-10.086879 101.23077 5.0323858
-9.6759596 101.20057 5.124053
-9.3312511 101.23949 5.2568145
-9.403223 101.56842 5.2575479
-6.5605278 101.74284 5.3557043
-6.2144194 101.7504 5.3190498
-5.8048997 101.74792 5.3215027
-5.9044876 102.03503 5.2987561
-2.1351509 102.7868 5.3373656
-1.9034671 102.75409 5.2090173
-1.1045812 102.72459 5.1763759
-0.89737141 102.7971 5.2050133
-2.0759175 103.18964 5.3814402
-1.7974429 103.27155 5.3604507
-0.73361903 103.17831 5.0566745
-20.512552 99.477028 5.8465152
-20.228962 99.421837 5.8598623
-20.204456 99.555328 5.9377508
-19.890434 99.520714 5.9562016
-17.691759 99.951218 5.8067718
-17.390982 99.827415 5.6838937
-17.652861 100.10464 5.9026756
-17.39979 100.3009 5.6640553
-12.649263 100.21237 5.6673727
-10.06163 100.45449 5.9435778
-17.683847 100.55555 5.9496193
-13.083822 100.53529 5.5502615
-11.73054 100.82268 5.7554626
-10.073901 100.54496 5.9854126
-9.7484884 100.92896 5.8884606
-7.6426001 100.91577 5.9760904
-6.4141226 100.64456 5.8767924
-11.74855 101.19248 5.8712735
-9.7438669 101.23447 5.894237
-9.4050961 101.3531 5.513485
-7.9331307 101.26461 5.9652729
-9.6151323 101.62926 5.8190002
-7.1487527 101.6257 5.9028153
-4.4221773 102.42651 5.7000442
-3.7678618 102.23397 5.8733387
-2.0752206 102.43464 5.728971
-4.1947713 102.56083 5.6788292
-3.7642272 102.7073 5.8901076
-3.3675213 102.57123 5.8976064
-2.0882735 102.84027 5.7325392
-1.9350873 102.80305 5.7336249
-3.8408208 103.0097 5.9288039
-2.0808175 103.18911 5.6822472
-1.9203529 103.12415 5.6726637
-1.3570451 103.13684 5.670217
-0.663459 103.20572 5.8631001
-2.0096886 103.59671 5.5154834
-1.9394225 103.57628 5.6537848
-20.849873 98.201889 6.1301384
-20.079679 99.330437 6.1478319
-19.977272 99.244431 6.2222404
-20.105957 99.563751 6.0513763
-19.763626 99.716461 6.1158395
-19.389317 99.76474 6.4571939
-17.652199 99.887489 6.3647857
-16.22295 99.990303 6.4327345
-15.985945 99.817551 6.1581011
-19.636541 100.08851 6.3539476
-17.701382 100.22183 6.2580333
-16.069801 100.34879 6.2589035
-15.786785 100.24487 6.0766082
-12.279209 100.16273 6.0983486
-11.488866 100.09057 6.1993785
-9.806839 100.43594 6.1366067
-17.730839 100.58319 6.2107272
-16.086771 100.65201 6.2290525
-11.859048 100.71582 6.1746645
-11.255829 100.60957 6.1649351
-10.090204 100.90484 6.1102796
-9.7946291 100.83356 6.1206231
-8.5414095 100.74651 6.2223692
-8.2019854 100.62381 6.0175638
-7.7802248 100.72111 6.1634812
-7.2066193 100.71282 6.1907372
-10.114406 101.03073 6.1318259
-9.810421 101.16908 6.138598
-9.3031845 101.26022 6.3809214
-8.7599373 101.20593 6.3577423
-8.3706741 101.3719 6.1645479
-7.8141108 101.20431 6.1613188
-7.3119745 101.21556 6.2957025
-9.893815 101.57196 6.0892625
-9.3099527 101.66679 6.3321757
-8.8309689 101.54004 6.38662
-8.3322926 101.68528 6.1973829
-7.8104806 101.78711 6.3427272
-7.4454999 101.82955 6.2691445
-6.8905206 101.90503 6.3854289
-4.003438 101.73208 6.1765013
-7.4458003 102.0298 6.3218265
-5.7092147 102.06441 6.2654595
-5.3763218 102.31682 6.1711597
-2.0237389 102.25546 6.2088933
-3.8664441 102.66235 6.1158209
-3.1191139 102.78289 6.2827024
-2.7894967 102.80054 6.292891
-2.1281388 102.84207 6.2352071
-1.9929934 102.80257 6.172842
-2.679491 103.0862 6.2638836
-2.1364067 103.07403 6.1672163
-1.9864975 103.07875 6.1231337
-1.2728996 103.06742 6.2191925
-19.729149 98.828941 6.7281871
-18.770216 98.98159 6.7794671
-18.762417 99.134056 6.7785497
-16.501841 99.363792 6.5532017
-19.126854 99.671753 6.5101099
-18.247244 99.598518 6.8063931
-17.77442 99.749344 6.7181959
-17.799744 100.00276 6.7141542
15.355973 81.327705 -1.057588
17.050322 81.96431 -1.1775783
17.083147 82.012009 -1.2339407
18.371292 83.163239 -1.1298581
13.822151 86.196777 -1.2265776
12.272067 86.649994 -1.3961288
17.889524 90.327866 -1.2104341
17.253653 90.749359 -1.2209127
16.393738 92.58432 -1.2909926
17.417543 95.356529 -1.1843482
11.506769 101.52768 -1.1088648
16.091852 102.75849 -1.2430819
16.576315 102.64463 -1.2403479
14.408997 64.36261 -0.57935494
14.480126 65.929047 -0.78021514
14.589789 67.896072 -0.71818733
14.574435 69.140587 -0.64305115
11.313216 71.700272 -0.80221134
12.666191 72.199753 -0.91059881
12.797737 72.680023 -0.93440646
12.742767 73.319778 -0.72488379
14.601645 74.914047 -0.93082345
13.891739 75.770409 -0.80968332
14.543186 75.923912 -0.6160717
12.987051 76.183472 -0.77622288
13.291393 76.69426 -0.79027021
11.883113 77.349022 -0.9967618
12.778974 77.094933 -0.80179888
13.308692 77.369675 -0.79325223
13.650629 77.920876 -0.82016867
12.168587 78.494621 -0.80898672
14.983155 78.086456 -0.8288244
12.894849 78.684334 -0.81929654
13.269921 79.645966 -0.80008984
12.581257 80.91716 -0.89130753
17.524824 81.467407 -0.6616962
17.468506 81.862099 -0.88114464
17.730608 81.997757 -0.70941907
18.861149 81.64959 -0.77055395
16.902498 82.130806 -0.79034758
17.923151 82.047729 -0.73605788
16.932781 82.731453 -0.93282944
17.19429 82.606804 -0.52146226
16.096668 83.244461 -0.98827004
16.802675 83.103615 -0.878627
12.272514 84.950867 -0.98117715
14.041206 86.192978 -0.83922338
16.329035 86.092293 -0.96270806
16.577158 95.434776 -0.66545457
16.322517 95.715393 -0.7477169
16.738602 95.675728 -0.59501618
0.82009864 97.681839 -0.55879593
1.4098094 97.727013 -0.73145437
1.5602162 98.095711 -0.52098078
15.732337 102.69367 -0.98028761
16.087465 110.1574 -0.63210797
16.47703 110.59377 -0.57305026
15.723732 111.02073 -0.67142707
15.909341 111.70752 -0.54218978
16.662983 81.925735 -0.39599735
17.032209 81.893707 -0.24930245
17.901314 81.96814 -0.31688583
16.71941 82.193504 -0.34034908
17.116508 82.123993 -0.10265196
18.376717 82.045975 -0.09762843
16.733852 95.431984 -0.20555659
16.25539 95.867714 -0.015807882
16.669374 95.703323 -0.17193873
17.375158 96.080269 -0.17512876
-0.18173364 97.74707 -0.26571319
0.24504654 97.914528 -0.27331924
0.62339109 97.821144 -0.46803689
-0.23187493 98.232216 -0.23428249
0.90565979 98.25943 -0.20306341
16.201878 102.52772 -0.078707553
16.605291 102.67925 -0.08044827
15.819136 104.79809 -0.23914017
14.984814 109.9418 -0.011566052
15.353835 110.26123 -0.11821555
15.954274 110.08591 -0.086728461
16.391603 110.20445 -0.25769788
16.537214 110.05371 -0.17929502
14.980824 110.65677 -0.13579111
15.123788 110.7673 -0.098998211
15.801568 110.64848 -0.16770221
16.115911 110.95917 -0.3514162
14.776956 111.12309 -0.24769446
15.896756 111.48163 -0.17499489
14.364398 117.12382 -0.39247811
14.522816 117.19645 -0.031388998
18.693478 80.887444 0.20711508
17.255037 81.267418 0.48346516
17.240513 81.909294 0.29786059
17.553404 81.780952 0.46146491
18.319798 81.651749 0.32827488
18.516474 81.828041 0.33780858
16.800402 82.26786 0.22647126
17.341099 87.803711 0.29413819
16.88769 88.216789 0.3151384
17.011967 88.312683 0.41235974
17.210487 88.504868 0.12586653
16.676193 89.995522 0.40023398
17.226099 89.618614 0.0060993172
16.671358 90.223389 0.39273393
16.654327 90.632484 0.40514228
16.663704 94.657341 0.36303231
17.243074 94.818413 0.37808478
16.333496 95.239639 0.49114063
16.8559 95.175232 0.39057168
18.094896 95.431526 0.43941572
16.265402 95.849121 0.038011473
16.747343 95.816101 0.070919596
16.859585 96.038727 0.099588051
0.8064028 98.27581 0.014924826
1.4589913 99.806252 0.073605336
16.698627 102.32072 0.34770763
17.18461 102.25887 0.39322981
16.411436 102.55691 0.24717855
17.705847 103.11098 0.35032228
16.337046 109.948 0.20276725
14.905616 110.14155 0.24551027
15.12282 110.19388 0.27457324
15.703739 110.44418 0.057993341
16.405991 110.14301 0.17383397
16.523779 110.14279 0.12816997
15.993093 110.89213 0.46205413
14.176476 111.19582 0.11222278
14.787545 111.30124 0.29207718
18.738037 80.431503 0.94900042
17.819719 80.891945 0.88948965
18.50581 80.821793 0.91402054
17.368292 81.209877 0.66981256
17.837683 81.144852 0.77690816
17.413425 81.790901 0.76572412
17.269075 82.032204 0.85805422
16.826027 87.777878 0.83433986
17.396374 87.904533 0.69304967
17.912863 87.878525 0.95850742
14.398395 88.319717 0.6046713
17.320051 88.228676 0.83437139
17.515123 88.191895 0.74309796
17.19404 88.783325 0.78871322
16.470671 89.200974 0.69209111
16.458511 90.33918 0.66440898
16.985916 90.207878 0.55261075
17.131479 90.43087 0.71816206
17.538872 90.214264 0.66209185
13.74187 90.940811 0.87877333
16.861767 90.755173 0.56665188
17.128529 90.544403 0.76233137
16.376099 94.333344 0.74982899
16.575933 94.452103 0.58469158
16.37851 94.957977 0.91189063
16.75589 94.73513 0.70394075
16.35076 95.13047 0.77524287
16.595018 95.125534 0.57282126
16.580858 95.715988 0.71569878
16.58683 96.12899 0.67291898
16.403057 101.87881 0.8445524
16.64838 101.84873 0.68540508
17.047813 101.96587 0.98169076
16.497154 102.02261 0.64658165
16.805288 102.18506 0.9905718
15.928103 102.74003 0.99777138
16.604641 102.67502 0.67795467
15.931081 104.81703 0.62919343
16.001368 105.13267 0.9007495
14.801094 109.80951 0.63580871
15.186152 109.85704 0.70389187
16.52511 109.87598 0.69136375
17.104828 109.95527 0.72487295
14.348084 110.12792 0.80289984
14.879711 110.40456 0.95568138
15.286216 110.17644 0.78549647
15.867986 110.18124 0.8658818
17.064358 110.37369 0.80966198
18.828239 80.470146 1.2414819
18.242258 80.817513 1.2094058
18.576767 80.704056 1.2497765
17.177759 81.446846 1.183018
17.845762 81.013077 1.2157141
17.243862 81.610321 1.4219112
18.478714 81.859573 1.1457487
18.966866 81.944756 1.3580761
16.612434 82.697647 1.0024402
17.189749 88.212646 1.2871883
17.618292 88.386993 1.3539795
19.864426 88.32914 1.3631147
