# .PCD v0.7 - Point Cloud Data file format
VERSION 0.7
FIELDS x y z
SIZE 4 4 4
TYPE F F F
COUNT 1 1 1
WIDTH 1611
HEIGHT 1
VIEWPOINT 0 0 0 1 0 0 0
POINTS 1611
DATA ascii
75.172112 17.602568 3.0519974
74.780502 17.725212 3.0314426
72.001213 18.139004 3.0219948
72.863281 18.265337 3.1049101
74.458481 18.053307 3.101331
74.96315 18.183186 3.1991029
76.769852 18.247028 3.1146173
76.864243 18.293592 3.1398001
71.672081 18.445816 3.1374328
72.697174 18.561348 3.0041094
73.677673 18.584576 3.0949562
74.011017 18.515182 3.1786971
74.249199 18.456036 3.1596236
74.531357 18.422688 3.0565839
74.838669 18.464697 3.0579402
75.60878 18.470846 3.0548587
76.879509 18.363392 3.1055377
80.084709 18.366871 3.1128783
72.264465 18.82469 3.1130035
72.477211 18.624151 3.1983328
72.86232 18.861172 3.0665941
73.077003 18.775053 3.1450942
73.346329 18.837503 3.0967185
73.915359 18.719927 3.0932202
74.528938 18.745974 3.1096058
74.975403 18.733791 3.1387305
75.772705 18.787977 3.1259608
76.300552 18.791601 3.0628386
76.965492 18.603283 3.1177661
72.8591 19.160812 3.074981
73.138748 19.03067 3.1343837
73.301483 19.174212 3.1444225
73.67849 19.069496 3.1226428
73.931694 18.914431 3.2287011
74.265968 19.049757 3.1250894
74.551399 19.128693 3.1221461
74.841568 19.124882 3.1756992
75.060715 19.12261 3.0893021
75.454697 19.137974 3.1018898
75.998642 18.932281 3.0908818
76.368004 18.976694 3.083595
76.857681 19.166937 3.2027159
77.1334 19.034466 3.0205081
77.654564 19.049513 3.0860887
78.16674 18.998363 3.0725918
78.863251 19.155241 3.0333309
79.407921 19.179031 3.0475645
71.726028 19.278671 3.0303297
73.68055 19.355654 3.1475852
73.992416 19.32583 3.1211913
74.241356 19.309534 3.178092
74.597626 19.266981 3.1331532
74.834015 19.267006 3.130106
75.139008 19.375496 3.1387198
75.539619 19.318733 3.2902007
75.851601 19.3286 3.1673138
76.374588 19.29421 3.0288801
76.586678 19.331575 3.1543772
77.883949 19.268677 3.1001911
79.532005 19.244286 3.1100547
79.888672 19.461266 3.1199088
80.580292 19.34099 3.0270131
80.755997 19.469128 3.0006411
73.111008 19.58412 3.2356286
73.26461 19.548481 3.0525074
73.69249 19.530958 3.163444
74.00592 19.54207 3.1009557
74.313301 19.529383 3.110054
79.187195 19.600739 3.1152275
79.361038 19.541134 3.0660322
81.911156 19.78862 3.1455734
73.274002 19.937346 3.012126
73.835419 19.94684 3.0686355
74.251289 20.003986 3.1900487
80.306458 19.923153 3.023906
82.083344 19.906576 3.0711286
74.34465 20.191584 3.291733
79.64875 20.248064 3.2260649
80.068771 20.262693 3.138504
80.332916 20.236912 3.0324717
80.565681 20.318716 3.1834438
81.98732 20.341421 3.0272293
73.965805 20.589825 3.2158558
78.83033 20.667604 3.2590322
79.283348 20.698574 3.2844491
79.772331 20.501263 3.2737625
80.646439 20.609501 3.2251925
80.938766 20.611425 3.260366
81.578194 20.406305 3.1266634
73.976204 20.82044 3.2831206
74.238937 20.857248 3.2636361
79.410561 20.792835 3.2027028
79.598106 20.856939 3.1888113
80.608177 20.853416 3.2448499
81.0252 20.951252 3.1995783
81.472839 20.818466 3.1215477
81.726799 20.71801 3.1608367
81.813782 21.434784 3.1719143
82.06321 21.761347 3.1981828
75.92733 18.829874 3.3190558
78.796257 19.138802 3.4127154
74.906685 19.4655 3.3912394
80.721703 19.402256 3.4609816
75.356499 19.502409 3.3573649
76.359634 19.641319 3.368957
76.866631 19.701609 3.3512151
78.295815 19.79623 3.3460746
79.159653 19.534714 3.3145201
72.835327 19.852331 3.3426857
74.203369 20.030443 3.3414664
75.122398 19.885139 3.3595123
75.519348 20.020893 3.3444998
76.13665 20.058069 3.3411977
76.652229 20.092939 3.3311682
76.888504 19.957935 3.4331567
77.142639 19.95335 3.3368249
77.433586 20.047674 3.4943371
78.211739 19.886412 3.5147815
79.547523 19.896559 3.4659009
74.724426 20.110872 3.350606
77.310364 20.115284 3.4281912
74.685364 20.466095 3.4528899
75.766335 20.538794 3.3917387
77.636574 20.582651 3.4343708
78.229996 20.533203 3.3313155
79.109222 20.658136 3.4625344
79.359734 20.687834 3.4761503
79.952835 20.662903 3.3510079
74.325607 20.977242 3.3324852
76.115715 20.791008 3.4065983
77.23967 20.885736 3.4303894
77.92765 20.946959 3.3882806
78.184265 20.937386 3.4113739
78.429031 20.934895 3.4159789
79.034782 20.796663 3.3678198
79.381866 20.770922 3.4268503
79.676941 20.892729 3.3457291
79.949913 20.967789 3.4439554
80.830429 20.93379 3.3373437
81.508438 20.767612 3.3647649
73.626945 21.167406 3.375735
73.919601 21.081123 3.3386736
75.222595 21.194462 3.4071481
75.989059 21.214743 3.4008555
76.303566 21.209364 3.3961062
76.877052 21.212509 3.4763274
77.237396 21.131001 3.3970342
77.490654 21.104994 3.4487069
77.867813 21.165543 3.4472213
78.154114 21.132048 3.4870632
78.443817 21.102615 3.406081
78.737595 21.18117 3.4223633
79.179779 21.252501 3.5612247
79.306496 21.162439 3.3351376
79.644142 21.148891 3.4206486
79.84893 21.238916 3.5629134
80.256828 21.164152 3.3425415
80.677521 21.256119 3.343518
80.78495 21.149082 3.4451938
81.178894 21.23362 3.3738859
81.30162 21.051298 3.4974697
73.820526 21.325066 3.5120194
76.023689 21.385544 3.3969436
76.352287 21.442181 3.4122112
76.618919 21.45923 3.4599183
76.992195 21.374992 3.4570491
77.231361 21.458679 3.4640536
77.467743 21.539648 3.4793072
77.904305 21.41449 3.5075264
78.159653 21.377308 3.5253534
79.082413 21.454798 3.4976695
79.294823 21.545113 3.5046537
79.597725 21.409178 3.4361801
79.954102 21.412821 3.4764614
80.289116 21.344553 3.4480639
80.964966 21.40653 3.3707092
82.012833 21.374268 3.3507116
76.630081 21.752743 3.4402194
77.30201 21.625984 3.4432466
77.52803 21.716293 3.401545
77.911339 21.817226 3.426538
78.14106 21.756552 3.4910526
78.438103 21.814445 3.4679644
78.719589 21.763311 3.4725037
79.147125 21.65358 3.3575377
79.322121 21.765318 3.4408655
79.633415 21.773149 3.4852884
79.869148 21.665617 3.577703
80.366402 21.86232 3.4881496
80.569351 21.888472 3.5444965
80.860443 21.823286 3.4681177
81.143188 21.846958 3.5406139
81.720428 21.652555 3.438942
76.630981 22.027365 3.4167576
77.073677 22.106066 3.4633639
77.572685 21.996342 3.4822354
77.817421 22.063686 3.4216321
78.203697 21.971087 3.4685383
78.462074 22.018599 3.4193337
78.736824 22.035295 3.4748764
79.007042 22.007528 3.3964491
79.437759 21.902262 3.5416846
79.74894 22.039169 3.4686038
79.823914 22.01178 3.4803972
80.284889 21.917204 3.4956872
80.565117 22.169001 3.3989592
81.509933 22.064619 3.436774
81.624008 22.144459 3.4956443
77.319221 22.465506 3.5405824
77.411049 22.211441 3.4735646
78.092575 22.242584 3.4015465
79.773804 22.331821 3.585907
80.360413 22.299458 3.5379663
80.60939 22.271542 3.5284359
80.85466 22.322365 3.4740772
81.524719 22.294689 3.4260774
81.667038 22.413923 3.4473498
82.031914 22.411995 3.372937
76.488808 22.537643 3.5044334
76.980118 22.652073 3.511554
77.165718 22.721954 3.4718125
77.783524 22.532984 3.4652455
78.839325 22.612625 3.5649242
78.977112 22.676102 3.4877672
79.252274 22.587156 3.5910158
79.540825 22.502377 3.5237057
79.997841 22.531052 3.516439
80.22802 22.641285 3.5152817
80.724541 22.55505 3.4357097
81.124809 22.519842 3.4199796
81.473183 22.534321 3.4803848
81.826225 22.755793 3.5671737
82.053253 22.669142 3.5645437
76.595924 22.989704 3.540715
79.994545 23.003529 3.438163
80.240967 22.954483 3.4777668
80.57872 22.880165 3.4967835
81.198952 22.889555 3.4426606
81.39006 22.945854 3.5485635
81.624451 22.876953 3.5630276
81.959419 23.059658 3.4716368
80.841553 23.234505 3.439743
81.18261 23.256203 3.5260305
81.692642 23.241175 3.5554307
78.373199 23.682056 3.4818652
79.152962 23.468334 3.5958066
79.344704 23.539785 3.5272455
80.628204 23.488461 3.5509291
81.119629 23.576492 3.4357309
77.672997 23.994417 3.335108
79.45945 23.830002 3.4764531
80.538338 23.727186 3.4935143
81.243248 23.757261 3.42347
80.012894 24.119522 3.5589778
81.349991 24.012428 3.4283288
73.877602 24.551729 3.4646077
79.430206 20.679094 3.633378
78.58696 20.710499 3.6189978
77.198654 21.282457 3.6022072
80.923492 21.267204 3.7481461
77.237473 21.45101 3.6478968
77.803398 21.344728 3.6125338
78.80423 21.47748 3.6353106
79.980499 21.328913 3.7407339
80.240799 21.443586 3.6379356
77.501663 21.757587 3.638464
78.431404 21.673401 3.6612892
79.148651 21.70785 3.6543424
79.253525 21.752857 3.6172578
79.616364 21.837902 3.649961
80.079819 21.752491 3.6060367
80.102325 21.791395 3.677716
80.631248 21.829069 3.7364249
80.85376 21.81448 3.653986
77.717216 22.160265 3.7041342
78.084663 22.081009 3.6455441
78.534653 21.961437 3.6663995
78.657715 22.028412 3.6441662
79.190384 22.103752 3.6871588
79.497307 22.070267 3.6216505
79.661171 22.169933 3.6349673
80.051575 22.154621 3.6290817
80.860382 22.173208 3.6804163
81.745132 22.171825 3.7433243
78.509697 22.462584 3.653053
78.995888 22.380915 3.7249126
79.946793 22.445902 3.6501884
80.239876 22.237553 3.6381576
80.471527 22.23748 3.629178
81.438408 22.444321 3.6252518
81.65052 22.436502 3.8208108
81.964523 22.341473 3.6427722
78.714012 22.588469 3.6297877
79.44323 22.564009 3.6924562
79.668404 22.73966 3.6341736
80.353119 22.733686 3.7265029
80.567856 22.613333 3.7276149
80.745918 22.63401 3.688345
81.022346 22.518839 3.6948607
81.733818 22.638453 3.6560364
82.041313 22.626369 3.6113944
76.957718 22.949303 3.7140646
78.284416 23.023113 3.7167966
79.048943 23.047846 3.7961075
79.960419 22.942152 3.7447252
80.274078 23.033819 3.6938705
80.502518 22.929504 3.6743078
80.795425 22.875734 3.6712101
81.07177 22.939894 3.6523204
81.465805 22.926794 3.6299131
81.818115 22.987434 3.7430379
82.104713 22.945986 3.7335086
79.354324 23.106693 3.788877
79.888664 23.336229 3.7010262
80.348808 23.178804 3.703388
80.486725 23.316984 3.7192152
80.832939 23.2463 3.6155198
81.727165 23.307745 3.7278681
81.973145 23.28639 3.6490719
78.248688 23.45195 3.6520929
78.431931 23.51083 3.7019591
79.287758 23.443388 3.6375232
79.658455 23.604151 3.6756876
80.257683 23.413073 3.7234557
80.452507 23.615231 3.7344549
80.775146 23.648972 3.7371857
81.510643 23.609785 3.8466775
81.73629 23.417347 3.7670238
82.107605 23.52471 3.7760448
79.551559 23.866035 3.757401
80.089348 23.942347 3.6502621
80.666443 23.921 3.7232552
80.946648 23.866241 3.64697
81.143181 23.93746 3.6576331
81.403824 23.864405 3.6937685
75.147346 24.155918 3.7216928
78.982491 24.23912 3.7292495
79.468262 24.095699 3.6505215
79.540413 24.032375 3.6940374
80.022697 24.176285 3.6110289
80.342117 24.266272 3.8314121
80.541763 24.162571 3.7512622
81.019493 24.212187 3.6428435
81.400536 24.078215 3.7104106
81.728935 24.216703 3.8049641
79.482628 24.483166 3.7571282
79.603035 24.562023 3.6645381
81.634506 23.411203 3.902966
81.689743 23.80595 3.9051824
70.8554 24.145756 3.9171476
77.987885 24.91078 3.9608722
78.081871 24.925381 4.1125073
80.411102 25.011877 4.0551395
81.847488 28.843319 4.1170382
81.950218 25.396765 4.2214985
77.050255 25.772455 4.251236
76.672699 26.625599 4.279417
76.9991 26.571815 4.2520528
76.993195 26.76585 4.3205781
77.685997 26.703861 4.3420372
79.261856 27.130581 4.3950744
79.676353 27.674891 4.3375564
79.881081 27.805122 4.3787718
78.997757 28.10083 4.4161034
79.380302 28.016747 4.3722053
79.513443 28.042305 4.3967204
79.885162 28.0068 4.3340492
80.238876 28.004236 4.3541942
80.629089 28.777021 4.4520469
82.067986 28.781265 4.3423185
80.188591 28.907791 4.4298387
80.48806 30.276096 4.4998279
80.188591 27.936863 4.5072341
79.805702 28.27335 4.5486064
78.862831 28.668316 4.5221968
79.232849 28.980471 4.5774045
79.73317 28.990536 4.5098143
80.250465 29.004768 4.5420923
81.664368 28.903517 4.5518293
82.128746 28.893839 4.5132842
78.530411 29.129051 4.5027423
79.225334 29.35618 4.7930326
80.614761 29.245264 4.6060314
81.376709 29.389082 4.5380173
82.057899 29.371111 4.5613012
78.347725 29.556494 4.6530404
80.098938 29.658909 4.5069304
81.282944 29.525299 4.5626698
82.106094 29.467175 4.5782914
76.813332 29.964088 4.7078323
81.159706 29.954889 4.6362171
76.138206 30.17617 4.6816497
77.281593 30.18433 4.7444835
79.635063 30.067818 4.6458635
81.17038 30.253321 4.5654769
81.716423 30.071142 4.6197238
82.010857 30.0814 4.5253119
73.945122 30.507988 4.7795582
81.71582 30.501343 4.5847778
81.598701 30.878952 4.5760942
78.339127 31.116657 4.7976627
80.564034 31.024269 4.6542325
81.271965 30.984602 4.6989851
81.828743 31.158327 4.5406799
81.97599 31.033728 4.6018391
73.999008 30.271301 4.8591499
71.732658 30.452183 4.8005753
74.173248 30.367882 4.8390727
72.726631 30.848934 4.8481808
74.723976 31.062296 4.9849648
80.132812 30.966028 4.8885593
82.121956 30.956509 4.8438559
75.350365 31.767385 5.0447598
76.618225 31.608639 5.0149655
71.394997 32.014111 4.8523932
71.421448 32.022724 4.8108468
75.35746 32.436169 4.9563446
76.424622 32.49173 5.0306273
75.639969 32.930813 5.0249958
76.206192 32.716331 4.9580202
74.742867 33.152962 5.0199451
75.118874 33.078575 4.9882293
75.858231 33.020454 4.9824219
76.377472 33.173313 4.9107785
74.50415 33.316196 5.0110955
75.625839 33.422161 5.089757
75.069931 33.614956 5.0414963
75.96611 33.789928 5.0646319
76.253349 33.806747 5.0685558
74.874519 33.931778 5.0439992
76.484314 33.909878 5.0962224
76.322464 33.794647 5.1205192
75.722481 34.015106 5.1021137
76.320915 33.980743 5.1172137
79.101097 35.044472 5.2831602
81.571182 38.449856 5.377142
81.472214 38.417023 5.4632721
81.630676 38.420216 5.4451632
83.503334 7.0424275 0.57966357
82.429932 12.304135 0.50747627
82.454842 12.301075 0.68512261
83.302132 12.379537 0.65540642
82.300278 9.6644478 1.1124369
82.585747 10.304895 1.0045706
82.54924 10.7707 1.1281788
83.456741 10.722034 1.0384145
82.675064 10.896267 0.98476344
83.301514 10.909911 1.029907
83.47509 10.817068 0.98142964
83.186646 11.64529 1.1427344
83.697937 11.602162 1.0004184
82.721092 11.744691 1.0778606
82.288567 12.026871 1.0663182
82.67514 12.061149 0.9896844
83.569427 12.098801 1.0127896
82.413689 12.531604 1.136098
84.94046 13.469036 1.1517171
84.950577 13.672773 1.1000096
83.30217 10.102305 1.2178296
86.613609 10.360857 1.343809
86.853012 10.581482 1.2792305
84.858261 11.116416 1.2204777
85.319038 11.394852 1.3045197
82.770592 11.610003 1.3585074
83.215515 11.485892 1.3544911
86.612038 11.613024 1.4729898
82.647293 11.716627 1.2277908
83.616959 11.995673 1.3582689
84.096039 11.940794 1.3610781
82.691971 12.25952 1.2551529
83.131508 12.128819 1.2831794
84.600929 12.062798 1.255774
88.067619 12.166401 1.418299
82.382812 12.380088 1.2205977
82.870247 12.335423 1.3632293
83.476616 12.457727 1.2779577
83.898056 12.678936 1.4783381
84.281166 12.759065 1.4885323
84.899406 12.879597 1.3352323
85.917694 12.770389 1.4733303
88.012405 12.806238 1.3347665
84.273224 12.919436 1.4989941
84.578537 12.927684 1.2921559
84.781845 12.972778 1.3193653
85.085884 13.032915 1.3869251
85.63398 13.032459 1.4250586
85.888275 13.055004 1.3827004
88.033386 12.982341 1.40193
86.20932 13.287065 1.3957653
84.534798 13.670387 1.219751
84.881561 13.935118 1.3556008
85.445892 13.850832 1.3042476
86.86721 13.876832 1.3918222
87.001801 14.056331 1.3866479
86.891113 14.219097 1.3389921
84.780807 14.67536 1.2799573
84.785103 14.768467 1.2802708
86.719437 11.556368 1.6038593
84.975677 11.846589 1.6494346
87.405487 12.249231 1.751684
87.824173 12.258004 1.5665689
87.892357 12.58003 1.6999732
87.964081 12.479762 1.6388007
90.477943 12.535596 1.7858342
83.051308 12.725076 1.5003265
83.170212 12.837292 1.5525169
83.400887 12.805002 1.5731304
83.990829 12.748684 1.6653333
84.851799 12.717823 1.5408275
85.147385 12.839405 1.5676128
85.775658 12.610067 1.5829098
85.921677 12.819033 1.6070415
87.404907 12.848808 1.7337461
87.799339 12.895927 1.6008219
88.064568 12.824641 1.5977492
88.23262 12.804552 1.61055
88.827812 12.61609 1.7988964
84.000977 13.013975 1.6096538
84.938667 13.15524 1.5322407
86.046349 13.084971 1.6006823
86.188522 13.134063 1.5658476
87.578842 13.160362 1.7570559
87.804955 12.955626 1.5801098
84.094307 13.425182 1.6283351
84.454887 13.497956 1.6662937
86.337433 13.217363 1.6030172
86.969833 13.207531 1.7191154
87.994476 13.304499 1.6698325
91.912338 13.424917 1.6709058
83.715469 13.661868 1.6039422
84.148773 13.557197 1.6027058
84.505524 13.674167 1.5493561
84.620735 13.724558 1.7268562
85.092529 13.627863 1.6984488
83.461227 13.933952 1.6048875
84.533455 13.978816 1.7127254
84.621933 14.026651 1.6651231
84.928696 13.85249 1.6904974
85.527832 13.853109 1.708191
87.37944 14.028505 1.594385
83.92543 14.317022 1.732511
84.520111 14.208381 1.6825907
84.689087 14.292839 1.6619762
86.15123 14.225167 1.6988121
88.40657 14.287191 1.6144456
88.864799 14.306183 1.6995246
83.842529 14.422772 1.7333945
84.136917 14.427937 1.781985
84.309952 14.540159 1.6926501
85.754059 14.448357 1.7351518
85.812431 14.48226 1.6838274
87.495422 14.554082 1.7064509
87.966698 14.541202 1.7064854
88.423698 14.661416 1.7050129
84.004761 14.800701 1.7309436
88.264984 14.802566 1.73149
82.473488 15.114016 1.739859
82.849342 15.187548 1.7137444
85.328529 15.046459 1.7452421
85.674995 15.040135 1.7680006
85.816986 15.086367 1.7590758
87.274597 15.144008 1.69148
88.088272 15.269451 1.7127434
88.261856 15.064474 1.7277513
88.594856 15.263044 1.7579778
83.747139 15.471985 1.7849852
87.173904 15.391369 1.7077487
87.553101 15.396218 1.7528124
88.714142 15.470315 1.7273022
87.097931 15.70653 1.7926341
88.324814 15.847986 1.7344908
88.691505 15.816008 1.6509178
88.930237 15.881351 1.7661536
87.289978 16.024191 1.7869786
88.34906 15.980175 1.6211979
88.624626 15.932076 1.5938493
88.258278 16.673124 1.7604247
87.842377 12.25841 1.8129436
87.900406 12.746314 1.8693247
89.209381 12.871075 1.9573013
89.770042 12.735079 1.8097628
90.120834 12.76443 1.9970345
86.455032 13.187771 1.8762003
87.507889 13.105125 1.9380214
87.79718 13.190547 1.8292111
88.04319 12.961874 1.8234684
88.535568 13.174027 1.8506712
86.496414 13.409652 1.8119762
86.83255 13.36401 1.9051485
88.491394 13.377492 1.8325384
83.211441 13.702539 1.8116833
90.996239 13.711905 1.9276412
84.248466 13.902777 1.905381
89.103607 13.955587 2.0972126
89.966545 14.059918 2.0148396
83.279663 14.385451 1.9118582
83.886757 14.307158 1.9319601
84.007065 14.279728 2.070539
84.710068 14.196554 1.9054003
85.458031 14.292178 1.9323
85.542686 14.386887 1.8483733
88.124275 14.205957 1.8834617
88.22773 14.280456 2.0050836
90.054749 14.130327 2.0231612
83.437996 14.523821 1.8786864
84.164856 14.572797 1.9653989
84.570862 14.592758 1.8437996
84.726273 14.506166 1.9958575
88.035393 14.62446 1.9040368
88.619308 14.586688 2.0067883
83.63047 14.90913 1.9733596
83.862724 14.8427 1.8819722
84.250221 14.865742 2.0847747
84.518631 14.742718 1.8783126
85.46553 14.885715 1.8757848
85.590034 14.935316 1.8860878
86.612587 14.903792 1.9110368
88.077087 14.809233 2.0041387
82.398857 15.054154 1.8108649
83.387764 15.126217 2.0139143
83.707878 15.070654 1.9836005
84.897736 15.080488 1.8324864
85.380051 15.072995 1.9764509
85.617706 15.006123 1.9287382
85.840042 15.123223 2.0804141
88.19809 15.171279 1.9682775
88.367332 15.106969 1.9756616
88.973557 15.190254 1.9765159
82.790489 15.5218 2.0737131
83.416969 15.361987 2.0252359
84.494537 15.461379 1.8275148
85.984039 15.359972 2.0306473
86.877197 15.381718 1.8404063
87.194458 15.352484 1.8480694
87.663071 15.42029 2.0830889
87.920876 15.344617 1.8204426
88.39695 15.470887 1.9471437
88.648827 15.420177 1.942413
88.829781 15.504494 1.84187
85.559113 15.652649 1.9761443
86.064095 15.67402 2.0540793
86.356567 15.818975 2.0490057
87.598289 15.600763 1.9838216
87.758133 15.809147 2.0507121
88.074089 15.623927 2.039135
88.437775 15.686934 1.9737773
88.690826 15.717693 1.8122205
89.115479 15.741895 1.8359512
83.08773 16.033962 2.0954506
85.238319 16.083075 2.0782392
87.146004 16.107582 2.0829957
87.550568 16.025799 2.0505228
87.627686 16.030523 1.9634279
88.02993 16.072794 1.9344833
88.388077 16.12314 1.9187006
88.676979 16.153561 2.000174
88.889893 16.13254 1.8346182
83.036636 16.474697 1.9773968
88.43924 16.223782 2.0922556
88.098 16.508007 1.9626354
82.159691 17.021458 2.0072534
83.773911 17.139563 2.0734854
90.733192 13.133076 2.1080756
87.16114 13.212233 2.1352482
90.500793 13.419522 2.1481478
91.059624 13.454459 2.2438197
91.912285 13.443999 2.3887138
88.194374 14.062601 2.2845619
88.930481 13.955676 2.1655087
90.444145 13.822614 2.3547008
90.812767 13.936424 2.1371198
85.083015 14.274017 2.2590485
88.155113 14.129898 2.1262908
88.246536 14.129846 2.3375692
89.885117 14.266655 2.3154161
90.013588 14.197103 2.1218946
91.913055 14.272318 2.2514029
83.929024 14.649977 2.1292038
88.171616 14.562149 2.1302404
88.384659 14.423976 2.2509055
88.619385 14.579102 2.2241156
88.918503 14.496628 2.1388872
89.129066 14.471159 2.2818706
90.486626 14.477266 2.2703393
91.383171 14.66153 2.2653885
85.571152 14.847315 2.1207151
89.71508 14.783787 2.3082745
90.124237 14.716979 2.3249121
91.626396 14.719987 2.2373745
84.885773 15.268776 2.1564066
84.979111 15.295193 2.232549
88.372055 15.170316 2.1976857
88.880508 15.230595 2.1358411
89.572578 15.185 2.2978711
89.887909 15.250077 2.3652856
90.055725 15.149372 2.3110254
90.339394 15.03128 2.280664
91.409813 15.257227 2.2554202
92.024124 15.270652 2.280715
83.274147 15.312161 2.1256187
85.035263 15.321728 2.2409794
85.389824 15.46474 2.2115238
85.649773 15.332444 2.2405849
88.11171 15.463129 2.1105006
88.219749 15.522346 2.2380896
88.905746 15.446335 2.1914799
89.136215 15.540998 2.3476763
89.595795 15.315781 2.3883188
90.141747 15.440187 2.3010068
90.363777 15.453556 2.3590612
91.249397 15.437301 2.2738855
91.698723 15.446353 2.3135524
82.75148 15.811065 2.1668112
83.564987 15.897697 2.2129216
84.501869 15.664976 2.2421784
84.755638 15.779621 2.1628625
85.393188 15.631861 2.1978605
85.601608 15.758959 2.2354465
86.026634 15.763853 2.2720063
86.228188 15.78057 2.184525
87.696648 15.890076 2.2917764
87.966087 15.838121 2.184577
88.340424 15.82929 2.1900384
88.653198 15.698408 2.1744976
89.587196 15.830333 2.3559241
90.415184 15.630363 2.3254287
83.933395 16.108147 2.1260393
84.509674 16.152363 2.2362664
84.765846 15.933121 2.2828724
85.647781 15.924227 2.2227006
85.856522 15.933096 2.2117438
86.287399 15.917789 2.2735057
87.22525 15.937142 2.1931491
87.484581 16.004131 2.2377341
87.690544 16.091515 2.218468
88.453629 16.059172 2.2980652
88.592522 16.134861 2.3374121
88.804741 16.135071 2.33443
89.584702 15.983705 2.3340955
82.167946 16.203671 2.268106
83.246918 16.243059 2.2925732
83.562469 16.358185 2.2717671
84.135551 16.424004 2.2613232
84.942139 16.410734 2.2314284
85.839684 16.235828 2.2003462
86.167198 16.366959 2.3267267
86.840591 16.300404 2.3909988
87.13559 16.260559 2.3207054
87.459579 16.290934 2.3498635
87.61219 16.341135 2.3133631
88.380165 16.250124 2.2501855
83.000534 16.561293 2.1164582
83.262695 16.682281 2.3558669
83.956207 16.725647 2.3196983
84.341949 16.683804 2.3419051
84.788994 16.56472 2.3273876
84.952515 16.747484 2.3361404
86.265572 16.649172 2.3798952
86.411392 16.759378 2.3640184
87.387009 16.679274 2.2721348
89.973495 16.612566 2.2617579
90.166351 16.686325 2.3067017
82.805092 16.982044 2.3248956
84.249451 17.073298 2.313097
84.992676 17.060179 2.2935901
85.642136 16.890606 2.3829565
89.745567 17.043322 2.2817636
82.298111 17.187708 2.2330151
82.751999 17.347311 2.3572266
82.881935 17.380655 2.346633
83.368126 17.129562 2.2536769
84.482849 17.250986 2.2749019
85.128036 17.135441 2.3256874
85.707848 17.308228 2.2453668
86.198647 17.153055 2.2661333
95.837509 17.597067 2.3391387
96.063843 17.456154 2.3351166
94.93766 17.994007 2.1630046
95.508217 17.95727 2.2138259
91.097305 14.954225 2.4774525
92.730217 14.70144 2.4336538
90.435959 15.248826 2.5737395
91.306786 15.035189 2.5616889
92.396751 15.259647 2.4208126
92.645058 15.256476 2.5343468
87.232567 15.48698 2.4164298
89.201637 15.487782 2.5981379
89.585953 15.460268 2.4509616
89.856224 15.498029 2.4503164
90.219116 15.477009 2.4693882
90.390434 15.50093 2.5267422
91.438736 15.32959 2.4519598
91.65731 15.409853 2.5286145
92.58429 15.492821 2.4319365
93.119919 15.542023 2.4655516
88.634224 15.815595 2.4162517
89.342377 15.810421 2.440824
89.545197 15.78804 2.569226
89.858398 15.69802 2.4975822
90.1231 15.629367 2.4578311
90.519218 15.626841 2.4625101
90.935753 15.721129 2.6158352
91.362656 15.777872 2.526979
91.521378 15.882117 2.5565155
92.107216 15.838484 2.5404825
92.690247 15.890297 2.6832755
92.85939 15.740353 2.461026
93.10627 15.680607 2.4621482
85.437469 16.054157 2.4567792
85.615303 16.104101 2.6226425
87.542747 16.009886 2.4255166
87.969101 16.133205 2.4705565
88.39978 16.098595 2.5399468
88.630051 16.109039 2.5332854
89.59819 15.934505 2.4652777
89.733009 15.983312 2.5675547
90.094315 16.00272 2.6286404
84.855217 16.488241 2.4204144
85.603065 16.322309 2.5359147
86.694382 16.235226 2.4737122
86.839508 16.298933 2.4353383
87.453148 16.358173 2.480356
87.88903 16.462406 2.604949
88.170212 16.291485 2.608695
88.207634 16.30336 2.4858403
89.138741 16.304134 2.6488888
89.921379 16.387478 2.4276028
90.166145 16.436794 2.4298129
84.477402 16.729258 2.4969063
84.917252 16.726698 2.4947124
85.420174 16.750019 2.5731151
85.697403 16.766258 2.4100928
86.290886 16.665688 2.4912751
87.229378 16.671307 2.4238405
88.127022 16.671726 2.589442
88.397766 16.681831 2.5007071
88.611526 16.682629 2.5463331
88.833763 16.592106 2.6536946
89.677704 16.590672 2.5410326
89.875404 16.619114 2.4846714
90.157585 16.658413 2.4996431
84.083527 16.915382 2.4975135
84.427658 16.902422 2.53162
84.737206 16.807192 2.4045961
85.603539 17.000898 2.4610345
86.040009 16.837545 2.4691319
86.281296 16.953739 2.4929342
86.548157 17.053013 2.5228498
86.875671 16.929958 2.4441149
87.936562 16.936573 2.6802909
88.250954 16.938923 2.5123377
88.860291 16.887173 2.6658721
89.35479 16.84161 2.5113473
89.585518 16.84552 2.6109478
89.781647 16.858397 2.5477319
90.065529 16.874969 2.5490239
94.10685 16.889263 2.6941509
83.043083 17.384878 2.6444678
83.355659 17.333233 2.6718767
83.517883 17.289307 2.4882166
83.720337 17.257084 2.5045857
85.042061 17.393652 2.5968444
85.336418 17.245005 2.5882251
85.632057 17.13983 2.5572157
86.037819 17.25728 2.5364494
86.572929 17.237057 2.5977435
86.737564 17.306646 2.6093979
87.818497 17.376722 2.6875474
87.971519 17.166075 2.5634778
83.251465 17.592541 2.6076777
83.489624 17.493656 2.4251194
84.459496 17.614389 2.526119
85.72506 17.507385 2.5852554
85.93882 17.451992 2.6623435
86.458817 17.45676 2.6435056
87.699806 17.524824 2.6052568
87.916199 17.593243 2.6139557
89.0532 17.654722 2.6430588
89.716072 17.622028 2.4622395
90.000717 17.638126 2.6573863
94.279686 17.627985 2.6747644
95.88768 17.453993 2.5753248
85.765839 17.875246 2.6856494
85.986977 17.873938 2.6246471
86.371323 17.743477 2.6272185
86.620087 17.762014 2.5749655
86.927147 17.733864 2.6832662
87.126801 17.801207 2.6710598
87.571678 17.964243 2.5798607
87.909142 17.889284 2.5257862
89.19101 17.741026 2.6741254
96.420815 17.836281 2.6493747
96.660934 17.745182 2.6540327
86.122246 18.048002 2.5643082
87.579575 18.257502 2.4741127
87.701042 18.177561 2.6811104
88.272652 18.284174 2.5740561
87.688667 18.314348 2.5876973
89.09024 18.570354 2.4828014
95.744095 18.329765 2.6786935
88.084251 18.818781 2.5673029
88.344681 18.747772 2.5639172
89.748962 18.849136 2.4496737
86.268623 19.181837 2.4380577
87.501068 19.131977 2.4961584
87.228081 19.319429 2.5055945
87.49913 19.361057 2.5611949
86.300949 19.635075 2.4472847
86.89888 19.545523 2.4641368
87.10183 19.648943 2.5238433
88.438782 19.500641 2.4821987
88.51017 19.529242 2.5681319
86.127113 15.031976 2.9406736
89.812279 15.071895 2.7326972
91.506493 15.702205 2.791352
92.294746 15.883596 2.8090475
92.632309 15.849857 2.7145152
92.795647 15.795345 2.8096459
89.589661 16.089798 2.7231987
92.67617 15.90294 2.7023108
94.254494 16.053574 2.7659717
95.450958 16.046021 2.8307796
95.777611 15.943649 2.7533009
90.584862 16.381716 2.9682398
90.717567 16.406895 2.7594237
92.340347 16.292669 2.9914484
94.26255 16.426067 2.7737856
95.029762 16.259678 2.7175722
95.26281 16.464008 2.7821195
96.289627 16.258469 2.7346823
90.79847 16.748812 2.9524193
94.172073 16.577766 2.7283401
95.064407 16.691288 2.7346616
88.617401 16.922096 2.7292767
90.679779 16.955845 2.7413702
94.085785 16.906775 2.7173047
94.388626 16.864271 2.812098
94.597542 16.870829 2.8935483
94.976044 17.030245 2.7573619
95.231888 16.834265 2.7647748
85.291222 17.241644 2.7130966
86.996819 17.27762 2.8501699
87.010025 17.281754 2.8581655
87.647087 17.297112 2.8956287
88.943321 17.221243 2.8074622
89.344704 17.220707 2.8293078
89.511627 17.227909 2.88587
89.822586 17.258839 2.8617473
90.165924 17.398905 2.7924111
90.78595 17.182829 2.9117639
94.367027 17.322214 2.8880675
94.56311 17.272551 2.7826893
95.425011 17.130541 2.7774951
95.783134 17.396118 2.7330337
96.111992 17.126699 2.7615216
84.489517 17.529318 2.7202532
85.861061 17.611275 2.7194524
86.945175 17.548794 2.7842615
87.197388 17.600948 2.7033997
87.77655 17.409544 2.7510307
88.07782 17.593048 2.8587902
88.473534 17.607107 2.8949006
88.693436 17.420227 2.7701001
88.983246 17.634407 2.8334227
89.16227 17.502712 2.7788031
89.894562 17.509111 2.9217217
90.10817 17.656065 2.9392042
90.477966 17.530203 2.9133465
90.652885 17.547112 2.8871698
91.051765 17.604593 2.9564316
91.354187 17.530622 2.9897208
94.368217 17.663862 2.7158258
94.996445 17.582447 2.8004808
95.677536 17.405376 2.9000282
95.823669 17.411249 2.7904263
96.641426 17.431068 2.880213
83.802444 17.810654 2.8090677
84.837639 17.994799 2.8714507
85.67247 17.952759 2.8075588
85.951447 17.853741 2.7373967
86.156654 17.837185 2.7708578
86.62706 17.93907 2.7297499
86.849709 17.835041 2.8285689
87.121399 17.793674 2.747385
87.377716 17.87384 2.7633624
87.847733 17.911406 2.8879066
87.979446 17.977831 2.7935779
88.321426 17.82793 2.8249919
88.645592 17.777897 2.9089763
89.011803 17.748289 2.9532816
89.281654 17.935946 2.8962502
89.466629 17.910534 2.8309548
89.871124 17.770199 2.812499
90.528564 17.810997 2.8645124
90.765793 17.78162 2.8870008
95.071236 17.771418 2.8916876
95.231354 17.831293 2.7782924
95.766472 17.733236 2.7113857
96.200996 17.885326 2.8253415
96.445129 17.874271 2.8381989
84.832527 18.069654 2.8857112
85.103531 18.064251 2.751621
85.495415 18.06773 2.7541447
85.760628 18.186403 2.8203204
86.821831 18.030964 2.8200257
87.131432 18.153688 2.8122284
87.660934 18.122112 2.8321757
88.738281 18.074026 2.9281013
88.953705 18.074276 2.8112743
89.501213 18.216652 2.889936
91.403854 18.191032 2.9929686
93.817657 18.261215 2.9891753
94.471138 18.148941 2.8918781
94.716499 18.107824 2.7900984
95.028397 18.202549 2.8793912
95.332901 18.262051 2.900749
95.592339 18.199705 2.8584571
95.749443 18.204247 2.8148146
96.421547 18.160433 2.8490648
84.139244 18.517237 2.8620565
84.717453 18.411421 2.8318651
85.071526 18.337255 2.7566822
85.430748 18.458527 2.7657566
85.713234 18.465677 2.8864336
86.072685 18.317228 2.8485346
86.212189 18.430183 2.8223867
86.478233 18.399811 2.9249971
87.210449 18.450706 2.8626366
87.411446 18.426971 2.8452177
87.778061 18.3922 2.9866319
88.055969 18.523762 2.8988826
88.274467 18.593733 2.8331201
90.718559 18.330435 2.8680975
91.314262 18.465979 2.9844403
91.59655 18.579645 2.9972599
91.951385 18.393456 2.9673939
92.34153 18.368523 2.947258
94.267868 18.346016 2.9238429
94.671272 18.418844 2.8737612
95.570297 18.430742 2.9341879
95.805519 18.367275 2.8635125
96.131065 18.445894 2.8704782
96.497986 18.499672 2.8808658
82.371468 18.757671 2.9183338
82.935028 18.769028 2.8104205
83.11425 18.729225 2.8535736
83.44899 18.689657 2.8225317
84.441711 18.761065 2.8083298
84.750053 18.793533 2.8168001
85.025314 18.706587 2.8371513
85.436607 18.842886 2.9356871
85.998047 18.698486 2.9274757
86.172714 18.76852 2.8396947
86.630577 18.759308 2.8153532
86.826591 18.737654 2.8251421
87.131004 18.711639 2.9113448
87.483856 18.680552 2.8542404
87.840866 18.798351 2.9855893
88.172844 18.738201 2.8149447
88.285461 18.629425 2.8729925
88.594704 18.737114 2.9266489
89.863991 18.71578 2.9643102
90.318161 18.815716 2.9887455
91.694748 18.695953 2.9690573
92.377892 18.790901 2.9542274
92.572578 18.832527 2.9923556
94.469536 18.820078 2.8686922
94.792633 18.809351 2.9870408
95.571556 18.756741 2.9369702
95.859077 18.752239 2.9355364
84.310745 19.189817 2.9344025
84.834053 19.092491 2.9635265
85.028526 19.104982 2.8909285
85.345085 19.137486 2.8654079
85.812363 19.123663 2.9250257
86.226761 18.954473 2.7981975
86.493172 19.170744 2.9731059
86.93615 19.143105 2.7166848
87.259361 19.058117 2.8606963
87.450745 19.086901 2.823117
87.685463 19.126633 2.9378519
88.475716 18.959917 2.8736298
88.903206 19.072685 2.9427519
89.697617 18.997482 2.9485445
89.73967 19.016369 2.9744077
93.68988 18.93969 2.9579656
94.697815 19.068775 2.934382
95.270264 19.021984 2.8466399
95.429878 19.11586 2.884963
95.789383 18.963543 2.9996543
96.314507 19.113127 2.9907451
96.622963 19.088259 2.9394131
84.417587 19.302095 2.8905365
84.735458 19.459961 2.8543715
84.97126 19.406874 2.8404422
86.586365 19.241415 2.9119284
86.845924 19.357742 2.8197033
87.155434 19.377161 2.8430855
87.368416 19.476885 2.9243445
88.100212 19.216736 2.9960468
88.478081 19.435413 2.7840848
88.528862 19.404533 2.9027963
89.225731 19.230795 2.9570301
95.10524 19.448221 2.7984295
85.40612 19.789417 2.9551857
85.991127 19.668259 2.8313506
86.329491 19.664429 2.9551764
86.836914 19.559296 2.8966942
87.105377 19.670753 2.8195562
87.508369 19.652031 2.8840635
87.618553 19.694355 2.9561121
88.689323 19.727077 2.9229188
89.505402 19.70311 2.9328864
89.733841 19.592714 2.9865856
90.019081 19.507969 2.7500441
93.772278 19.766665 2.9706936
88.43 19.977682 2.9775803
88.628143 19.895943 2.9758766
89.315796 19.830902 2.9289901
90.417664 20.016239 2.9934371
95.161186 20.069874 2.9693308
88.984131 20.218445 2.7536421
88.352554 20.458134 2.9727287
88.380119 20.726969 2.7333434
88.400917 21.075645 2.8621495
95.97863 14.294263 3.0532024
95.931297 16.529303 3.0105624
84.45031 17.092539 3.1137426
89.429428 17.214388 3.0383439
91.374481 17.314344 3.1012473
89.112556 17.40873 3.0476067
90.137413 17.552546 3.0173142
89.075455 17.989 3.0209975
90.310242 17.826488 3.1395195
91.960342 17.999489 3.119185
94.007362 17.959694 3.0937607
95.176651 17.765768 3.1523716
86.033508 18.256517 3.0484035
86.237144 18.227932 3.1775744
87.631973 18.25115 3.0830588
88.016685 18.195364 3.0265434
88.564362 18.254089 3.0062091
88.937843 18.199457 3.0847838
89.385162 18.078529 3.0217195
89.545921 18.10018 3.116622
89.813797 18.182131 3.0745707
90.217285 18.12389 3.1292555
90.401825 18.081945 3.2547474
90.875763 18.120094 3.1213093
90.972664 18.211563 3.138952
91.347931 18.088932 3.04076
91.746559 18.235136 3.1167655
91.910576 18.244421 3.1226535
93.51506 18.137114 3.0424685
94.084 18.106197 3.0012136
94.574409 18.22547 3.0295579
95.686897 18.296064 3.0941064
96.378578 18.247622 3.0493455
87.54007 18.572582 3.1386037
87.750526 18.472679 3.0389905
88.183395 18.455051 3.1384373
88.489723 18.510872 3.0000272
89.334518 18.392902 3.1308548
89.511009 18.502481 3.0589623
90.034378 18.416742 3.1068745
90.831299 18.45644 3.1471491
90.986404 18.449362 3.1396854
91.399849 18.515957 3.0961483
91.674614 18.506792 3.16746
91.93409 18.448988 3.0895491
92.324142 18.366495 3.1144195
92.572937 18.466505 3.1526434
93.818329 18.386833 3.0709195
94.377319 18.54937 3.0594573
95.588814 18.449537 3.1638868
95.982201 18.374298 3.1676064
96.356384 18.354721 3.069025
85.030098 18.661991 3.071353
85.290237 18.854219 3.0357609
85.744789 18.805399 3.0778306
86.667252 18.760693 3.0146668
87.651451 18.675047 3.0869946
87.997124 18.785053 3.0865281
88.297615 18.863506 3.0344114
89.040306 18.759331 3.1229048
89.294815 18.799379 3.1823571
89.611656 18.70343 3.1530902
89.77095 18.63019 3.1938148
90.162964 18.785856 3.2383549
91.031822 18.782511 3.2095969
91.644157 18.655092 3.2055206
92.213928 18.866371 3.1514401
92.64859 18.805399 3.0742486
92.811737 18.870316 3.144752
93.993774 18.823177 3.0645089
94.641113 18.640251 3.0190217
95.004318 18.713266 3.1080091
95.255089 18.682213 3.0858457
95.549896 18.694063 3.1093514
95.794159 18.763756 3.0661457
96.066162 18.741465 3.0700119
96.997192 18.779963 3.0947814
84.767487 19.056986 3.0054142
85.033066 19.026194 3.0882871
85.453522 18.929653 3.0933874
86.16581 19.152407 3.0824084
86.404396 19.076906 3.2149324
87.53392 19.047464 3.1072998
87.73719 19.098368 3.1886513
88.362389 19.168741 3.2061443
88.950348 18.978695 3.1576273
89.175812 19.0418 3.2246521
89.590309 19.100744 3.1801832
89.878265 18.95734 3.2165484
90.243484 19.120619 3.1076803
90.3769 19.058191 3.1531382
90.633102 19.016167 3.1809628
91.137184 19.132639 3.2832966
91.586823 19.081099 3.1938019
92.045265 19.026419 3.2074485
92.318245 19.136292 3.1638126
92.943497 19.050188 3.1651616
93.055977 19.144382 3.1627903
93.440948 18.998833 3.1398926
93.760567 19.102974 3.1533496
94.055267 19.034273 3.0477455
94.65847 19.047113 3.1064327
94.888084 19.163422 3.1456692
95.265259 19.045359 3.1119435
95.532814 19.068871 3.1527166
95.860107 18.963673 3.1101189
96.338371 19.016533 3.1123214
84.918335 19.312618 3.1290472
86.000092 19.411884 3.2193241
86.251793 19.333677 3.1508787
86.544739 19.313435 3.1477172
86.864098 19.337719 3.1205704
87.11692 19.291618 3.1233137
87.579681 19.39992 3.2519341
87.749222 19.388628 3.087023
88.026703 19.321047 3.1811028
88.357582 19.378849 3.1732051
88.600006 19.245125 3.1831465
88.9142 19.359425 3.1913497
89.278488 19.286549 3.1205926
89.550308 19.367908 3.2206585
89.818291 19.391598 3.2766259
90.098076 19.375757 3.1973281
90.483795 19.296368 3.2098224
90.768906 19.226755 3.1821122
91.118942 19.328026 3.1454763
91.766869 19.213186 3.2618496
91.929947 19.402691 3.2435408
92.373161 19.351883 3.1480165
92.899597 19.423132 3.1886489
93.087074 19.304251 3.19631
93.477242 19.376507 3.193929
94.177803 19.463169 3.0255563
94.317917 19.295782 3.2763596
95.685356 19.461016 3.0967731
95.949692 19.274662 3.1177759
96.076965 19.327906 3.0979421
96.473946 19.395378 3.2270257
96.852333 19.288019 3.111598
96.996124 19.244465 3.0876677
84.146019 19.634687 3.1020007
84.578384 19.782818 3.1466436
85.402031 19.628979 3.0011392
85.687172 19.515251 3.0255227
86.361305 19.682789 3.1944425
86.505226 19.645294 3.1344037
87.139633 19.704586 3.2539725
87.558853 19.570578 3.2920249
87.68866 19.64064 3.1653516
88.081635 19.699385 3.2450726
88.341629 19.784119 3.1807818
88.642082 19.610825 3.1377807
89.252441 19.645723 3.1810949
89.591583 19.534292 3.2509136
90.065964 19.590725 3.2498631
90.474655 19.657152 3.2463858
90.781654 19.589975 3.2169361
91.448898 19.630417 3.2833517
91.671867 19.536425 3.2977436
92.098686 19.659065 3.2479076
92.320473 19.749729 3.2505946
92.491081 19.592337 3.2203543
92.908104 19.602655 3.1149266
93.266106 19.538116 3.2073386
93.454887 19.61875 3.2409217
93.716087 19.674841 3.1744142
94.030968 19.689816 3.1335588
94.309189 19.540636 3.2941241
94.919434 19.764595 3.1096749
95.244431 19.771772 3.1654067
95.511383 19.639774 3.1324012
95.762787 19.539747 3.1830182
96.187347 19.689646 3.2168489
96.481354 19.724998 3.2259288
96.646858 19.728811 3.0637686
97.055374 19.783352 3.2942216
82.656738 19.943676 3.1032546
84.408134 19.944054 3.1221952
85.025482 19.953651 3.1489182
85.426079 19.837868 3.0931551
85.685646 19.849728 3.1592438
86.984123 19.876818 3.1128771
87.486526 19.8235 3.1963625
88.0336 19.879044 3.1887164
88.496254 20.015953 3.0643744
88.660225 19.91386 3.194406
89.811295 19.976847 3.1906214
90.145119 19.948593 3.2257113
91.843658 19.989458 3.2887855
94.00058 19.950235 3.2078974
94.647881 19.813795 3.1152451
94.968697 19.950815 3.1124768
95.356552 20.01712 3.1893048
95.631111 19.973452 3.2673264
95.873985 19.937967 3.1948187
96.167946 20.005951 3.1783853
96.460831 19.974586 3.1516128
97.007294 20.017492 3.2093945
97.356537 20.040623 3.2693067
82.533897 20.323681 3.1516371
84.267868 20.266361 3.2087712
86.895218 20.245995 3.2287202
87.399025 20.310585 3.1446803
87.930954 20.344912 3.2249689
88.254807 20.364817 3.2972922
88.804337 20.192806 3.2828233
89.135071 20.154352 3.1136658
89.405212 20.356535 3.2536352
90.026993 20.393938 3.256319
91.998352 20.209654 3.2540004
92.170975 20.213531 3.267354
93.19339 20.310467 3.2583563
93.335121 20.343626 3.2768836
93.891983 20.297609 3.1661248
93.962303 20.165876 3.2306995
94.930092 20.267286 3.2229631
95.208183 20.138834 3.1725211
95.587898 20.188456 3.2284091
95.818642 20.277884 3.1425824
96.19059 20.225052 3.2476044
96.576767 20.108282 3.1477249
96.630585 20.132915 3.1883047
97.314362 20.170321 3.2004318
98.015846 20.262897 3.2613542
98.239838 20.352921 3.2171757
82.634689 20.480389 3.2105367
86.806946 20.504242 3.1448872
87.104721 20.546223 3.1203451
87.310402 20.518644 3.2687373
87.610313 20.447672 3.2485683
88.335159 20.562502 3.1214972
88.527649 20.55991 3.1198299
89.462601 20.425596 3.1325672
89.994507 20.403751 3.2759192
93.245728 20.418608 3.2481139
94.164207 20.48407 3.2473285
95.295319 20.460281 3.2921362
95.597885 20.430449 3.1732144
96.521088 20.652929 3.2663798
97.13549 20.670683 3.2633915
97.411583 20.672256 3.2174582
97.6912 20.532564 3.287729
83.180069 20.849279 3.114696
87.445038 20.811024 3.1369953
87.707634 20.760628 3.2607794
88.069641 20.842138 3.2382574
88.45237 20.793228 3.1000023
94.066872 20.745214 3.1619356
94.678329 20.786217 3.2606874
97.120789 20.799074 3.2044575
97.204544 20.825363 3.1762915
97.698036 20.785618 3.2961278
97.821159 20.714571 3.2852283
98.330338 20.970438 3.2297301
83.389908 21.29801 3.2944455
93.30864 21.210747 3.2936354
94.04007 21.265518 3.2814705
97.02533 21.127787 3.2855449
97.341873 21.135914 3.1845765
98.291389 21.111174 3.1972208
94.553726 21.520302 3.2642121
95.069893 21.593927 3.2779078
96.154076 21.453964 3.1855755
98.314247 21.396103 3.2749116
82.827782 21.737131 3.2417717
82.366402 22.131235 3.2473609
82.530991 22.182915 3.2997162
82.976204 22.135567 3.2037029
96.498314 22.195377 3.2491848
98.098259 22.161205 3.1860268
98.768105 22.07023 3.2660677
83.06424 22.365997 3.2843189
82.696388 22.543884 3.1494377
82.805862 22.707121 3.2335117
84.148491 22.609543 3.2525451
83.728569 22.96121 3.2216771
90.02137 18.268343 3.443661
91.01004 18.154156 3.3567975
90.721985 18.395611 3.3250296
91.125725 18.377409 3.3468618
85.863411 18.876478 3.3619494
89.995239 18.856625 3.3150716
90.03492 18.864098 3.309937
90.464043 18.745972 3.3753932
90.8116 18.822479 3.3239102
91.097305 18.84021 3.390671
91.51767 18.625809 3.3057055
87.653404 19.027681 3.3167279
89.374779 19.162331 3.3394082
89.531044 19.184515 3.388005
89.945435 19.138678 3.438493
90.092201 18.968153 3.3732681
90.424629 18.964355 3.3380084
90.627357 19.1113 3.3374898
90.95874 18.937605 3.3532031
91.364922 19.179287 3.3475261
94.034973 19.184628 3.3086522
94.966591 19.189106 3.3783696
87.435562 19.3221 3.3626494
88.495743 19.283171 3.3772249
88.630402 19.382368 3.3674333
88.880104 19.458187 3.4146101
89.204842 19.202475 3.3389781
89.620171 19.305281 3.4615805
89.754463 19.39072 3.4537592
90.148819 19.278107 3.3792086
90.464111 19.423819 3.3754361
90.822273 19.437473 3.3701391
91.112099 19.365303 3.3776376
91.387276 19.324198 3.4184358
91.596832 19.291649 3.3671083
91.872162 19.352484 3.3262749
92.46756 19.330967 3.3980501
92.803108 19.471315 3.3336205
93.146454 19.24292 3.4009352
93.522469 19.347752 3.3097339
94.174721 19.367699 3.4211752
94.709846 19.204653 3.3035228
95.95578 19.341341 3.3974771
85.981102 19.680525 3.3377831
87.800407 19.708275 3.3435981
88.093956 19.598803 3.4119184
88.638588 19.577646 3.3940616
89.138374 19.610044 3.3836288
89.514832 19.582014 3.3975132
89.80983 19.773628 3.4164596
90.150375 19.602694 3.3291912
90.426727 19.689259 3.388696
90.642288 19.686457 3.4468095
91.550209 19.570358 3.4671314
91.888771 19.523041 3.3303096
92.305672 19.724079 3.475863
92.666023 19.701557 3.3788066
93.267151 19.606955 3.3478272
93.384628 19.683666 3.3723893
93.701942 19.630241 3.3377757
94.129883 19.554611 3.3031297
94.338058 19.759632 3.3569646
94.743736 19.580389 3.3259635
95.066757 19.713741 3.3586218
95.149841 19.75333 3.3085449
96.519424 19.682442 3.3902192
97.212166 19.703856 3.3014216
83.674828 19.924868 3.3944781
83.772766 19.951452 3.4000823
87.7491 19.870159 3.363683
87.997711 19.898811 3.3451416
88.45784 19.852077 3.3193264
88.619881 19.91169 3.3236008
89.571762 20.001116 3.4273143
89.805649 20.022537 3.3800874
90.39666 19.965961 3.3893142
90.707573 20.038418 3.4152117
91.176765 20.056074 3.3470159
91.497711 19.947929 3.3433857
91.661171 19.995453 3.4490635
91.857063 20.079779 3.3912137
92.330551 19.812393 3.3514333
92.557968 20.059172 3.4200003
94.376205 19.966095 3.3378139
94.992592 20.063435 3.3036327
95.798691 19.893644 3.4238565
96.147957 20.048967 3.326149
97.062691 19.947056 3.4101152
97.584076 20.046848 3.4355519
84.834213 20.388145 3.3525593
87.512337 20.259512 3.3792379
88.123779 20.19323 3.3829975
88.418091 20.312483 3.3853703
88.519287 20.338255 3.4299846
88.934303 20.201645 3.4593401
89.150421 20.371271 3.4438326
89.851173 20.280336 3.4946773
90.191162 20.270784 3.5024884
90.451569 20.22529 3.4438658
90.802727 20.304081 3.4320874
91.035728 20.222311 3.4564261
91.280388 20.224808 3.4530721
91.580124 20.213274 3.4345307
91.959389 20.237186 3.4809887
92.273605 20.259972 3.4692354
92.49556 20.345724 3.4094079
92.883888 20.164333 3.4551704
93.121254 20.329779 3.5190122
93.416847 20.373081 3.5258665
93.730522 20.372581 3.4997959
94.107689 20.282118 3.4996605
94.468559 20.364904 3.5407624
94.62442 20.354908 3.3518522
94.925301 20.31683 3.4987285
95.249893 20.229099 3.4581342
95.494911 20.159266 3.3066297
95.796593 20.33234 3.444298
96.258675 20.257383 3.3348553
96.497765 20.133688 3.3714936
96.648849 20.13592 3.3920925
97.034073 20.350628 3.3514528
97.266045 20.186907 3.4714887
97.776642 20.385529 3.3839753
98.275261 20.394249 3.3853917
83.550011 20.624924 3.3015924
83.94165 20.54071 3.3630302
86.943398 20.471491 3.3176436
87.298355 20.528236 3.3196096
87.69873 20.493605 3.476866
88.385239 20.424459 3.4078205
88.668816 20.58477 3.496582
88.988716 20.529297 3.4812152
89.138344 20.551161 3.4727783
89.561653 20.606379 3.5519695
89.862831 20.611406 3.5178089
90.25798 20.612968 3.5549231
90.513588 20.451586 3.3745399
90.785896 20.558167 3.4538589
91.072067 20.576672 3.4496527
91.296974 20.595612 3.4015152
91.630806 20.511368 3.4764547
91.911102 20.600069 3.5323362
92.315567 20.601135 3.4623566
92.548225 20.522121 3.4780922
92.970749 20.584522 3.3534026
93.098251 20.539497 3.4957561
93.536118 20.440575 3.4302382
94.266388 20.420856 3.390563
94.609436 20.545889 3.3099158
94.921814 20.472504 3.495528
95.512329 20.446386 3.4694431
96.535286 20.667322 3.4919043
96.726814 20.650438 3.4634295
97.107216 20.659069 3.3041542
97.675301 20.537497 3.3803406
97.832474 20.522793 3.3231888
98.282867 20.477972 3.4816465
98.445915 20.47604 3.3616576
83.977074 20.751707 3.3811996
84.032463 20.785908 3.3269622
84.49453 20.870819 3.3089256
84.616882 20.851263 3.3904777
85.209015 20.76597 3.334305
85.621429 20.941063 3.3577561
86.294975 20.986834 3.5174305
86.858788 20.970655 3.538058
87.417686 20.791315 3.3809896
87.694412 20.745289 3.4846809
87.982498 20.723288 3.4957626
88.405922 20.920542 3.5197248
88.659279 20.850733 3.478595
88.945602 20.864416 3.4336128
89.325417 20.781454 3.4970021
89.570702 20.864784 3.5057003
89.807365 20.758024 3.486861
90.151192 20.729774 3.4929452
90.382454 20.884588 3.5281203
90.710197 20.8421 3.5569661
91.037384 20.860441 3.493238
91.232208 20.928034 3.4401915
91.741791 20.749737 3.4274378
91.946579 20.812172 3.4989457
92.304916 20.855721 3.5220985
92.51194 20.769236 3.5412636
92.870605 20.974676 3.5308559
93.219643 20.970612 3.4309106
93.572464 20.757309 3.5137138
93.769249 20.774019 3.5548537
94.036362 20.828196 3.4405026
94.684914 20.734766 3.4721127
94.98111 20.975468 3.4105825
95.380348 20.863548 3.4514868
95.874886 20.862785 3.3419061
96.154877 20.749077 3.3205793
96.375038 20.794294 3.4042201
96.689163 20.856178 3.4125023
97.150864 20.794085 3.5932679
97.274269 20.773508 3.3762894
97.598267 20.908077 3.3548985
98.283569 20.86554 3.5034561
83.522964 21.116766 3.3649404
84.485611 21.074112 3.5331473
85.143906 21.202303 3.4391561
85.978195 21.249058 3.4363325
86.364693 21.115313 3.460783
86.417511 21.061687 3.5114446
86.800385 21.078354 3.5026214
88.047409 21.266769 3.5055337
88.363213 21.032642 3.532649
88.590919 21.114067 3.4532235
