# .PCD v0.7 - Point Cloud Data file format
VERSION 0.7
FIELDS x y z
SIZE 4 4 4
TYPE F F F
COUNT 1 1 1
WIDTH 1469
HEIGHT 1
VIEWPOINT 0 0 0 1 0 0 0
POINTS 1469
DATA ascii
-42.496204 71.880844 -1.0047907
-40.937664 71.8955 -1.190418
-40.603294 71.858452 -1.084828
-38.608952 71.840988 -1.0554513
-45.316875 72.077568 -1.0599236
-42.942135 72.206558 -1.1533076
-41.504391 72.025482 -0.93275946
-39.992786 72.192787 -0.92879176
-42.302269 72.317696 -1.1362606
-40.77969 72.355484 -0.94709176
-38.745361 72.491615 -0.98652405
-38.613327 72.571785 -1.0449524
-40.229 72.783745 -0.94592863
-40.154102 72.733994 -1.0366505
-39.702621 72.875542 -0.93496841
-38.53046 72.742928 -1.0404599
-38.289062 72.711151 -1.0436033
-37.882038 72.791992 -0.94820535
-37.776665 72.788322 -0.94519013
-36.663506 72.831848 -1.0313565
12.791223 72.722794 -0.98926878
-45.537884 72.951103 -0.9118157
-39.94902 72.9179 -0.97250313
-38.684929 73.091827 -0.92965233
-37.792458 73.044586 -0.93962818
-37.422234 73.029648 -0.92402029
-37.065273 72.974594 -0.92209846
-36.809753 73.025963 -0.93958181
-39.026234 73.241341 -0.97858882
-38.907887 73.282669 -1.0361141
-38.503891 73.481293 -1.0203633
-38.209499 73.379288 -1.0218155
-37.817722 73.278999 -0.90327746
-37.735985 73.479294 -1.1091344
12.90016 73.333382 -1.0220071
-39.205654 73.503555 -0.92743659
12.454826 73.699516 -1.0976715
-38.529926 73.89624 -0.99101275
-37.459572 74.068146 -1.088131
12.508926 73.888535 -1.0128047
12.732 73.926544 -1.139487
13.02784 73.865219 -1.1815925
-37.503227 74.296814 -1.0519304
-37.379578 74.273827 -1.0781821
-37.508423 74.672295 -1.1002834
13.450664 74.503403 -0.91183728
-37.620689 74.728462 -0.93753171
13.834538 74.749115 -0.96363109
-37.690655 75.300652 -1.057659
-29.281115 75.837189 -0.95096368
11.048916 77.016563 -1.1047297
11.883113 77.349022 -0.9967618
14.560435 77.20961 -0.92592585
13.74417 77.460777 -0.91500413
13.958025 78.199448 -1.1208549
12.943336 78.44799 -1.0664984
12.442049 78.826843 -1.0339742
12.867756 78.718254 -1.1175503
12.947221 78.763168 -1.0288972
13.67177 78.824402 -1.0559134
14.750051 79.067253 -1.0609468
15.355973 81.327705 -1.057588
17.050322 81.96431 -1.1775783
16.389 82.44912 -1.0760493
16.932781 82.731453 -0.93282944
16.972122 82.809006 -1.0715232
18.346161 83.034782 -1.0919862
-77.010735 83.360222 -0.97400224
-73.925453 83.328819 -0.96365184
-73.159866 83.303764 -1.1797889
-72.525902 83.307419 -1.0650431
-72.06781 83.239319 -1.1317152
16.096668 83.244461 -0.98827004
-76.440155 83.498398 -1.0777323
-73.570068 83.475357 -1.0334977
-72.150597 83.494179 -1.0610682
-74.026352 83.808426 -0.98195565
16.75951 83.829277 -1.172565
16.396477 85.989075 -1.0730125
-31.421333 89.566208 -1.0534196
-0.70923239 94.111237 -1.0272301
-56.574215 114.74825 -0.90016359
-38.6436 121.19471 -1.1304244
-38.715626 121.26963 -1.1296388
-38.431702 121.23004 -1.0042832
-38.605099 121.55219 -1.0837252
-66.194046 122.51699 -0.94039917
-48.539173 122.4032 -1.0628961
-48.158024 122.88808 -1.1765845
-48.430832 123.16914 -1.0360013
-54.826244 123.50244 -1.0976765
-48.447948 123.36496 -1.08438
-54.949135 123.73689 -1.0884043
-54.897297 123.62282 -1.096091
-48.804909 123.62043 -1.1392673
-48.191158 124.25272 -1.1482588
-52.514366 131.19598 -1.0466341
-50.955559 132.43843 -1.0145643
-43.065296 133.46835 -1.0632043
-47.811428 133.56435 -1.0444157
-15.395722 133.78224 -0.9290275
-42.073769 136.72371 -1.1762023
-90.263687 41.220169 -0.65595132
-90.712006 44.211884 -0.62949675
-90.621704 44.439228 -0.70002002
-91.299873 47.326714 -0.80109662
6.7702188 48.37075 -0.7971462
-91.14138 49.743835 -0.62901288
-91.512566 50.312031 -0.66795945
-91.426277 50.353756 -0.68169731
-90.718765 50.262505 -0.75648516
-79.524696 53.850925 -0.63038749
-92.25872 54.928806 -0.77514023
-71.933792 55.106281 -0.63024384
-92.279411 55.37418 -0.72330344
-92.088791 55.237614 -0.8660515
-76.748772 55.528046 -0.60657805
-76.429527 55.738667 -0.64397663
-76.408531 55.923031 -0.62990385
-71.23996 55.932663 -0.64977825
9.5586843 56.38612 -0.67506081
-92.92363 56.623447 -0.89323628
9.5669384 56.427887 -0.64213365
-92.877396 56.858364 -0.84479082
-69.040344 57.255821 -0.60842514
-68.942635 57.142986 -0.79447538
-92.06517 57.407906 -0.71282494
-92.184494 57.726326 -0.69742799
-50.63372 65.263947 -0.60976326
-50.177525 65.182373 -0.85352147
-50.851578 65.52845 -0.76863092
-50.580711 65.469276 -0.85121179
-49.233238 65.418442 -0.85214043
-48.357014 65.627701 -0.74500364
-48.039268 65.445053 -0.64964342
-47.86565 65.638695 -0.72827256
-47.391178 65.447227 -0.60507375
-50.801174 65.875122 -0.77782857
-49.734215 65.935471 -0.64116645
-48.191952 65.786758 -0.80879337
-47.919949 65.97316 -0.60803485
-47.032127 65.894821 -0.8396554
-50.72002 66.05748 -0.63043386
-48.163136 66.219795 -0.70939809
-47.434059 66.216522 -0.66148847
-47.388645 66.232971 -0.64663422
13.748586 66.049431 -0.75784564
-51.023045 66.571426 -0.68466473
-49.981026 66.503525 -0.66434819
-48.720142 66.534637 -0.60261613
-47.66391 66.388565 -0.61426014
13.791129 66.451591 -0.86448407
-51.336624 66.808571 -0.82809806
-51.179073 66.662949 -0.63956833
-50.954563 66.600266 -0.7009539
-49.034634 66.799522 -0.72995996
-48.713245 66.860123 -0.60115761
-50.823215 67.089462 -0.71100545
-49.887157 66.93058 -0.72895283
-49.903793 67.241432 -0.6204223
-47.043419 67.275192 -0.68916917
-46.711544 67.290657 -0.732804
-46.023502 67.395599 -0.83851045
-54.561649 67.564423 -0.65323448
-48.580048 67.609818 -0.63730478
-47.546265 67.729218 -0.62312084
-46.885551 67.642746 -0.8992157
-46.638969 67.770882 -0.80337298
-46.376064 67.503532 -0.85105246
-46.020752 67.535629 -0.7462914
-39.758018 67.788162 -0.63171315
-55.049271 67.887154 -0.84239793
-48.089352 67.966827 -0.64089203
-47.884605 67.837753 -0.65762162
-47.254627 68.078003 -0.70903403
-46.689495 68.051605 -0.63310063
-45.276161 68.076363 -0.84164429
14.589789 67.896072 -0.71818733
-45.639301 68.321693 -0.73869812
-45.592278 68.324379 -0.74865633
-45.118607 68.18412 -0.71736187
-44.815456 68.244934 -0.79298913
-44.649395 68.118233 -0.61052704
-42.362534 68.373222 -0.68852806
-40.821777 68.134491 -0.75251794
-40.727989 68.157288 -0.71890533
-40.345325 68.172066 -0.66738671
-39.169868 68.363266 -0.69332266
-48.327431 68.502625 -0.70224684
-46.72522 68.518707 -0.63079381
-45.412548 68.676537 -0.61203146
-44.956707 68.550125 -0.78474391
-44.61697 68.469368 -0.75063199
-44.272938 68.524391 -0.66169041
-43.807545 68.617485 -0.85763872
-43.774979 68.51017 -0.73736662
-43.473904 68.487328 -0.7450214
-42.607349 68.482063 -0.60833919
-42.211437 68.429512 -0.75612956
13.245831 68.467209 -0.83059573
-47.541874 68.728554 -0.72422516
-45.322945 68.895714 -0.60891598
-45.052895 68.722084 -0.67402071
-44.845871 68.776527 -0.77460945
-43.16378 68.835732 -0.67250383
-41.036831 68.980247 -0.64986843
-39.254753 68.952805 -0.77196795
-38.519753 68.732635 -0.61140019
-38.090229 68.904266 -0.73604667
-47.814869 69.299538 -0.67152852
-46.06155 69.29187 -0.75463659
-45.485249 69.228622 -0.62789702
-45.129391 69.065117 -0.62619412
-44.814819 69.205582 -0.79841304
-44.67144 69.11512 -0.61438102
-42.830685 69.273392 -0.76310623
-41.43494 69.181168 -0.74317366
-40.887966 69.085655 -0.82345414
-39.991272 69.228088 -0.68751919
-39.842419 69.051048 -0.70723158
13.246498 69.136696 -0.80046564
14.574435 69.140587 -0.64305115
-49.887737 69.346535 -0.86018974
-47.711601 69.311501 -0.69216722
-45.555538 69.362099 -0.6985805
-44.862225 69.38633 -0.6601361
-44.683575 69.389771 -0.67757004
-44.083878 69.460365 -0.68728393
-43.714245 69.519943 -0.60743946
-42.697041 69.305916 -0.72641182
-41.282711 69.341766 -0.74152011
-38.132568 69.508827 -0.61690497
-37.594311 69.578201 -0.64765853
13.438642 69.584206 -0.84072804
13.617386 69.415443 -0.89777976
14.007622 69.407898 -0.75749803
-50.609859 69.603821 -0.80506146
-49.403126 69.798988 -0.78680259
-46.444763 69.683434 -0.6606214
-45.744572 69.897743 -0.61507368
-44.922901 69.64325 -0.65709025
-44.416649 69.867508 -0.6364249
-44.331657 69.895905 -0.68567777
-43.227692 69.619415 -0.69616008
-42.05035 69.860924 -0.87475741
-41.817005 69.75531 -0.65621269
-41.452324 69.867302 -0.74227643
-40.920654 69.729103 -0.75867754
-40.507759 69.834572 -0.71477163
-39.966579 69.795006 -0.68193626
-38.926907 69.731033 -0.64280057
-38.130367 69.897011 -0.68897772
-37.903297 69.791779 -0.6862132
13.510943 69.773369 -0.79111105
-49.419025 70.153076 -0.86348981
-45.96336 70.106781 -0.793051
-45.79332 69.930641 -0.84075892
-44.10482 70.102112 -0.67840958
-44.035915 69.980682 -0.61630315
-43.165325 69.935326 -0.73755175
-37.554714 69.91626 -0.60395622
-37.318283 70.041389 -0.74938756
-48.453705 70.303886 -0.72009236
-46.305321 70.456963 -0.84125704
-40.301159 70.334755 -0.79950553
-38.715023 70.214241 -0.66177207
-37.590675 70.356796 -0.70669585
-36.690659 70.343788 -0.78203285
-36.469521 70.470383 -0.64738244
-33.720692 70.475365 -0.74588263
-45.756138 70.796097 -0.60633415
-44.596542 70.605774 -0.78075969
-43.995834 70.756134 -0.76695663
-40.519211 70.578224 -0.74698585
-38.314251 70.566551 -0.78162336
-37.426327 70.5345 -0.7173785
-37.144997 70.658844 -0.73796505
-36.661179 70.643967 -0.60133475
-36.433552 70.573929 -0.62011069
-36.297764 70.708359 -0.6737473
-46.424538 70.911499 -0.88711965
-45.980549 70.953926 -0.64646709
-45.065434 70.955391 -0.69102126
-44.460815 70.840538 -0.69771022
-43.843849 70.958221 -0.71950799
-40.534863 70.970718 -0.81757522
-40.438148 70.932144 -0.81829244
-38.644779 70.91497 -0.89889497
-38.160011 71.035164 -0.85434932
-37.918835 71.062126 -0.60127956
-37.430683 70.856377 -0.65359461
-36.932426 71.081703 -0.69406629
-36.657043 70.892738 -0.72074419
-36.510857 71.025803 -0.7160942
-35.222733 70.951385 -0.65841544
-35.065083 71.052048 -0.6034463
-45.839966 71.17952 -0.69359386
-45.066669 71.255646 -0.71369392
-44.600822 71.314919 -0.69308662
-44.094868 71.236961 -0.72996181
-38.10479 71.327461 -0.63552028
-37.847858 71.127548 -0.88819146
-36.937576 71.114197 -0.68024993
-35.154255 71.188805 -0.67799705
-34.96841 71.358772 -0.74545765
-33.402321 71.210533 -0.69212663
-30.085066 71.340782 -0.60298789
-45.584618 71.557289 -0.8328746
-45.124977 71.524879 -0.68984026
-44.839149 71.6866 -0.63450187
-41.405651 71.624565 -0.78641677
-40.829262 71.689957 -0.68648767
-40.579517 71.623344 -0.87780499
-40.304424 71.501877 -0.61438572
-39.792278 71.661469 -0.80772215
-38.349701 71.569077 -0.6156227
-37.903442 71.626915 -0.7461645
-37.527863 71.680237 -0.69807726
-36.003483 71.40802 -0.67288584
-35.125908 71.58136 -0.80492812
-35.010815 71.545769 -0.73657519
-34.204796 71.630501 -0.75795883
-33.756653 71.596252 -0.79357535
-31.289858 71.5177 -0.64864773
-30.310167 71.609085 -0.61960578
11.326619 71.626556 -0.76059777
13.045961 71.680107 -0.82918596
13.53987 71.49971 -0.75632715
13.92117 71.550705 -0.82428366
-46.093262 71.730164 -0.68431354
-45.758125 71.912605 -0.73098332
-45.459137 71.904907 -0.71663368
-45.258301 71.820572 -0.64426512
-44.279182 71.792557 -0.63011056
-42.851002 71.970276 -0.88136786
-40.575188 71.735588 -0.71457416
-37.409286 71.768562 -0.652412
-35.422466 71.978401 -0.81855464
-35.188137 71.923088 -0.75348973
-35.064682 71.725159 -0.82041216
-33.721352 71.834526 -0.63442588
-30.906298 71.88311 -0.60518062
-30.545671 71.822296 -0.60298645
11.306514 71.737129 -0.82301819
-52.169571 72.247406 -0.61785126
-45.403763 72.067581 -0.67056471
-44.708405 72.143242 -0.69179529
-44.698723 72.027977 -0.63188344
-43.253937 72.225746 -0.86653388
-40.226139 72.217575 -0.87292314
-40.055416 72.248604 -0.82563287
-38.078133 72.296806 -0.88025248
-36.899353 72.146698 -0.88353372
-36.129395 72.20829 -0.60513812
-35.437206 72.000191 -0.79960805
-35.281265 72.103027 -0.82408404
-33.624626 72.210266 -0.72589469
-30.431944 72.299515 -0.60386491
-29.877356 72.195869 -0.69828486
-29.348886 72.15303 -0.63570988
12.707732 72.07457 -0.83114332
-51.918217 72.535301 -0.62749088
-51.761284 72.519791 -0.62754315
-50.184238 72.355232 -0.69926387
-45.679451 72.499405 -0.88123292
-43.650955 72.432098 -0.70798182
-43.484406 72.579926 -0.71169829
-36.960644 72.378838 -0.80460572
-33.768303 72.356316 -0.62710589
-32.826611 72.567932 -0.65818578
-29.797192 72.430336 -0.72635782
-29.475163 72.402298 -0.66776937
-29.350739 72.536621 -0.6062364
13.31736 72.400902 -0.82881033
-51.819244 72.750656 -0.61821139
-45.07019 72.848038 -0.76323521
-42.706264 72.762901 -0.88737077
-38.55732 72.652367 -0.69721282
-38.35667 72.789185 -0.80167705
-37.593987 72.856369 -0.77286303
-37.436974 72.874084 -0.62192851
-37.022419 72.76458 -0.77122325
-36.70573 72.788307 -0.850743
-36.515045 72.806046 -0.79269314
-35.147125 72.76519 -0.77228457
-32.565746 72.797462 -0.65091866
-31.299416 72.740349 -0.6469233
-31.171238 72.874405 -0.66315019
-29.481443 72.787613 -0.6631977
-29.198223 72.788918 -0.71542257
13.099685 72.678604 -0.75964212
13.219568 72.837425 -0.81368703
-51.738995 73.056068 -0.66265088
-45.537899 73.185364 -0.86985177
-45.081169 72.911163 -0.77696866
-39.123158 73.05172 -0.73783243
-38.877434 73.048111 -0.68488294
-38.429329 73.152748 -0.83798981
-37.515686 72.961945 -0.85727936
-37.439762 72.968597 -0.62708449
-36.331188 72.91214 -0.70869869
-35.901016 73.084564 -0.71099067
-35.177517 73.040077 -0.75357157
-33.631481 73.180397 -0.73996371
-33.259926 73.194878 -0.69839436
-29.49342 73.097961 -0.62334251
-29.26185 73.087524 -0.60871124
13.043618 73.064552 -0.73300892
-45.757072 73.320641 -0.68197805
-45.083729 73.216743 -0.72596097
-38.646355 73.343552 -0.83306664
-37.869267 73.457016 -0.63367724
-37.546307 73.240517 -0.60772461
-36.645248 73.40963 -0.80555469
-36.196449 73.280571 -0.60440952
-35.837818 73.304512 -0.7727381
-35.011169 73.286659 -0.85095423
-31.376654 73.373398 -0.6522162
-31.128145 73.297401 -0.70960552
-30.865023 73.236511 -0.60715544
-29.154083 73.431061 -0.65613496
12.742767 73.319778 -0.72488379
-44.759136 73.624916 -0.81382531
-43.891346 73.575668 -0.72413325
-42.29129 73.764763 -0.73962587
-38.228115 73.751976 -0.80242854
-36.044392 73.57032 -0.87245709
-31.003141 73.715836 -0.66795278
-30.65037 73.77652 -0.70497966
-30.054779 73.764153 -0.69560593
-29.786972 73.679817 -0.72766334
-29.00705 73.675598 -0.68479532
-45.255093 74.015892 -0.72708714
-38.092686 73.881615 -0.82104552
-35.524879 73.871674 -0.74674255
-32.043583 73.968079 -0.65414202
-31.683146 73.800117 -0.76617247
-30.104099 73.892838 -0.73097569
-29.764267 73.986221 -0.69011307
-29.618013 74.02346 -0.680134
-29.117998 73.844635 -0.70421934
-33.168186 74.371429 -0.64153379
-30.648739 74.297844 -0.63139337
-30.439308 74.238335 -0.62759352
-30.215225 74.122185 -0.68928146
-29.884031 74.383606 -0.69943357
-29.180466 74.349121 -0.6424191
13.388019 74.369179 -0.87107366
-37.860336 74.643524 -0.62766689
-35.785198 74.641205 -0.66633141
-32.539043 74.576027 -0.65185952
-31.723284 74.612396 -0.73683435
-29.359131 74.609047 -0.61641467
13.427093 74.56958 -0.74741215
-38.251995 74.751305 -0.64921063
-37.902679 74.833389 -0.6131404
-35.786072 74.709671 -0.68244147
-29.492359 74.855156 -0.73754519
-29.269535 74.862144 -0.69021434
12.792427 74.994461 -0.74777442
13.310469 74.832489 -0.82944369
-37.202736 75.102608 -0.61955971
-37.069336 75.224586 -0.61315894
-36.312004 75.145439 -0.63370436
-35.642296 75.003174 -0.62013346
-30.778482 75.152748 -0.64507335
-29.731684 75.234825 -0.78375524
-29.516745 75.114014 -0.64304781
13.398935 75.032387 -0.79291797
-37.171425 75.529259 -0.61336339
-36.608604 75.323448 -0.64046913
-36.305965 75.415359 -0.69278693
-31.517492 75.552299 -0.739205
-31.476665 75.550835 -0.8203088
-29.797647 75.403236 -0.68432468
-29.623457 75.478363 -0.70740676
-29.3043 75.414207 -0.67833322
-31.547438 75.690834 -0.6735217
-31.359619 75.733681 -0.82295799
-30.386629 75.781456 -0.64025927
-29.770409 75.682167 -0.65940249
-29.51193 75.778587 -0.66560626
-29.286085 75.855927 -0.78795975
13.891739 75.770409 -0.80968332
-35.558369 75.91349 -0.69520354
-30.918907 75.966202 -0.65201437
-29.192492 76.020416 -0.65918416
-28.982578 76.023056 -0.69279182
12.987051 76.183472 -0.77622288
14.573459 76.043694 -0.74933195
14.620939 76.200508 -0.88498962
-31.41194 76.619942 -0.65745026
12.880971 76.727486 -0.75523865
13.230141 76.566277 -0.76766729
-31.231958 76.869904 -0.78733516
-27.651529 76.996223 -0.76158971
12.778974 77.094933 -0.80179888
13.352646 76.82225 -0.81287318
13.401299 77.311295 -0.72804481
13.742775 77.373123 -0.80013829
14.575054 77.147621 -0.73451519
12.517384 77.623779 -0.83579385
13.354908 77.489914 -0.79274285
13.650629 77.920876 -0.82016867
14.983155 78.086456 -0.8288244
12.192862 78.498077 -0.79602957
12.816777 78.523361 -0.72828507
13.269921 79.645966 -0.80008984
12.178209 80.632271 -0.74739885
12.505091 80.972626 -0.88024205
12.687235 80.991852 -0.87584227
17.524824 81.467407 -0.6616962
17.468506 81.862099 -0.88114464
18.861149 81.64959 -0.77055395
-79.814026 82.128593 -0.63038284
16.902498 82.130806 -0.79034758
17.82688 82.022743 -0.7227385
-38.749733 82.701591 -0.61659634
-79.410591 82.959984 -0.62373179
-77.633698 83.054604 -0.61651003
-77.62458 83.121422 -0.64069438
-73.905876 83.243423 -0.86674011
-72.356873 83.396759 -0.69925994
-37.996189 83.169464 -0.63571393
16.802675 83.103615 -0.878627
-77.072998 83.472794 -0.76775777
-73.568542 83.418159 -0.69870788
-72.623703 83.462143 -0.69355673
-72.45224 83.615288 -0.75331813
-72.197411 83.589539 -0.79725999
-41.84288 83.651588 -0.62199664
-73.367966 83.954704 -0.84902912
-39.442146 83.914993 -0.60890675
-40.932442 84.404243 -0.62131417
-39.103397 85.083344 -0.65239525
-29.948624 85.122604 -0.61750811
-40.587681 85.310211 -0.79651266
-39.365337 85.422386 -0.67288494
-40.659504 85.688194 -0.75496119
-63.945522 85.853737 -0.60929394
-63.686615 85.948418 -0.73228812
-40.688141 85.889114 -0.75542855
-40.37701 85.896164 -0.72187942
-26.70573 86.044716 -0.82286137
-31.722584 86.513275 -0.62130666
-30.876833 86.640976 -0.6333251
-38.335129 86.988113 -0.65897077
-31.249769 86.970612 -0.64536148
-31.045654 87.189331 -0.72931969
-30.770308 87.115471 -0.67135566
-32.537487 87.416054 -0.81496185
-31.113369 87.476677 -0.75693929
-30.400524 87.360817 -0.68300104
-20.234966 87.748276 -0.72568935
-32.215862 88.067436 -0.81980556
-31.859833 88.17569 -0.80931312
-24.315283 88.284897 -0.83767021
-48.93388 88.738464 -0.73430014
-48.155945 88.519302 -0.84526658
-47.009193 88.763649 -0.827537
-25.893047 88.626015 -0.72966158
-24.398567 88.750763 -0.71977842
-24.105364 88.715881 -0.71449304
-23.984686 88.700821 -0.83410263
-48.940083 88.841324 -0.74135482
-48.784916 88.990669 -0.74658543
-47.729813 88.915878 -0.62314761
-47.443806 89.020241 -0.72909927
-47.217838 88.911362 -0.84505719
-31.65283 88.889091 -0.72624481
-24.973377 89.077011 -0.75667524
-24.429058 89.028885 -0.80454427
-24.158947 88.891357 -0.72920823
-31.717249 89.113159 -0.88167131
-31.256674 89.278709 -0.89889145
-25.030449 89.191521 -0.76421583
-34.609966 89.687805 -0.67938048
-25.218367 89.4328 -0.79052019
-24.924561 89.440208 -0.74454391
-24.313478 90.179535 -0.77310264
-24.284811 90.344337 -0.69339901
-16.100485 94.782494 -0.70207745
-58.406376 95.272621 -0.74135685
-57.98296 95.258827 -0.7667098
-17.605898 95.541275 -0.62901491
-16.708685 95.453148 -0.63571191
16.3636 95.640938 -0.78405255
16.577158 95.434776 -0.66545457
16.95228 95.668427 -0.66233921
-58.5355 95.88533 -0.78065467
-58.392586 95.775833 -0.74641693
16.301926 95.945084 -0.87653905
16.727335 95.87146 -0.6689229
-58.248932 96.04673 -0.74571061
-1.278425 97.212898 -0.60745627
1.2290956 97.402367 -0.88643843
1.4896697 97.641777 -0.8220827
1.329949 97.812248 -0.64082599
-89.90139 104.73935 -0.65640479
-18.450157 109.70495 -0.61272806
15.36833 110.55334 -0.65968955
-36.791767 110.86813 -0.65597981
15.373948 110.77413 -0.76539433
15.616627 110.96146 -0.80137861
15.613703 111.00037 -0.66117918
15.943789 111.06145 -0.69192278
-60.770813 113.43968 -0.63762194
-60.465107 113.81991 -0.60569799
-20.033951 114.03262 -0.65787321
-80.583572 114.6972 -0.63182682
-15.196667 115.1861 -0.66769898
-16.222294 115.43098 -0.73677862
-15.126168 115.4177 -0.78138548
-17.878979 116.64264 -0.83848155
-53.766037 117.24223 -0.73878402
-53.31385 118.05556 -0.88215458
-38.18956 119.79057 -0.79408658
-72.891487 120.85386 -0.77097535
-66.763451 122.17953 -0.80501479
-66.151176 122.11934 -0.74796045
-66.190414 122.55143 -0.86987501
-49.195244 122.47261 -0.79747951
-49.269127 123.47523 -0.84744805
-39.240814 124.0006 -0.78777605
-55.963718 124.58746 -0.84068924
-53.722462 126.16762 -0.73132682
-21.426971 126.2289 -0.633838
-24.467676 127.05042 -0.73935711
-24.403725 127.65016 -0.74069422
-21.274616 130.70917 -0.79703867
-18.271486 132.92523 -0.67714053
-90.338387 43.923599 -0.34645575
-91.136856 48.800507 -0.54305428
-91.643997 50.260994 -0.37701118
-90.702332 50.588169 -0.54675812
-92.036743 50.969204 -0.37041065
-92.796638 51.124069 -0.35041401
-74.581871 51.094666 -0.3689633
-69.354164 51.17453 -0.3076371
-78.978188 51.398735 -0.35905477
-91.895226 51.792187 -0.50322843
-91.242004 52.151054 -0.53847396
-74.301926 51.977028 -0.34798253
-91.902016 52.483025 -0.56381762
-91.716553 52.639328 -0.50201297
-91.591286 52.828606 -0.48762727
-91.455269 52.854557 -0.52460605
-79.498146 53.266586 -0.4082073
-79.532227 53.554771 -0.4674367
-75.452408 54.12944 -0.4895162
-75.27951 54.553165 -0.34708363
-92.058731 54.773891 -0.54603142
-75.79335 54.721268 -0.53219897
-75.309021 54.767918 -0.35316813
-75.278259 54.639145 -0.43046781
-75.303169 55.178173 -0.34282517
-75.241562 54.936581 -0.4848448
-71.527573 55.19677 -0.52859247
-92.405327 55.288254 -0.51038831
-76.263878 55.482136 -0.33693418
-76.124702 55.200558 -0.38686872
-71.459915 55.20163 -0.49789459
-71.390381 55.223995 -0.41219485
-71.073532 55.333332 -0.53085029
-92.713661 55.631996 -0.57260764
-76.282448 55.697132 -0.31928894
-75.806526 55.563885 -0.43660158
-75.096298 55.746277 -0.39665747
-71.666588 55.514809 -0.59195292
-70.988609 55.682621 -0.54559499
-92.531967 55.935104 -0.5344941
-76.334702 55.915016 -0.45253468
-75.178787 56.019806 -0.41660184
-71.841278 55.977985 -0.53082252
-71.57666 55.987316 -0.43680087
-71.144196 56.04549 -0.53266835
-75.669731 56.294178 -0.40924668
-75.317642 56.121136 -0.4601042
-75.14595 56.190514 -0.36471164
-75.757263 56.40546 -0.49009803
-75.601906 56.994965 -0.42310253
-71.474159 56.816833 -0.41360578
-68.401283 57.093803 -0.50611305
-68.084656 57.128319 -0.38209662
-92.958824 57.327908 -0.32641068
-92.60656 57.372337 -0.32837793
-74.701981 57.341579 -0.33233729
-74.595917 57.521496 -0.40533888
-69.478142 57.552597 -0.45730704
-92.080078 57.639687 -0.37091696
-74.204155 57.871922 -0.40828937
-74.647003 58.034714 -0.41260237
-69.652847 58.000748 -0.57842195
-69.150192 58.034233 -0.55553025
-93.405151 58.389046 -0.39257383
-68.105652 58.482155 -0.30801058
-70.547523 58.680855 -0.53123999
-57.738911 58.632496 -0.35144368
-93.18428 59.311615 -0.4521898
-67.960655 59.565037 -0.33509234
-67.44236 59.737118 -0.34505922
-67.010612 60.04789 -0.30532804
-67.659554 60.569691 -0.31044105
-66.298592 61.953979 -0.30292651
-50.437592 64.321877 -0.3404974
-50.306454 64.767136 -0.31541523
-50.16164 65.016876 -0.30136034
-50.631893 65.252045 -0.56160456
-49.288109 65.245499 -0.33754259
-49.177181 65.26635 -0.32913813
-48.194923 65.159378 -0.42788684
-47.540699 65.364555 -0.4984296
-50.16048 65.561028 -0.44209906
-49.94334 65.584511 -0.55418128
-49.503906 65.466087 -0.37771428
-48.625168 65.690361 -0.42398319
-48.151585 65.478394 -0.46213236
-47.786156 65.551666 -0.38815981
-47.640751 65.567818 -0.33697668
-50.840397 65.834572 -0.43805352
-50.543655 65.905502 -0.31563655
-49.975437 65.886742 -0.41105685
-48.533997 65.70295 -0.35186046
-47.868103 65.91555 -0.40722793
-47.137005 65.996605 -0.54560882
-54.777283 66.236473 -0.33242732
-53.195786 66.134125 -0.36010754
-52.571262 66.126045 -0.34337974
-51.724789 66.11087 -0.36406985
-50.552723 66.168533 -0.50315839
-49.941429 66.242783 -0.39372975
-49.074692 66.106842 -0.39311254
-47.792202 66.05481 -0.47096452
-47.442963 66.090202 -0.30406216
-46.725739 66.289261 -0.32898122
-46.087513 66.200897 -0.32550198
-53.614143 66.302292 -0.40173721
-52.251575 66.583611 -0.48127523
-51.529217 66.587059 -0.4971548
-50.558643 66.496758 -0.43864283
-50.177662 66.401436 -0.41715702
-50.021332 66.578423 -0.43587449
-49.78577 66.313759 -0.4395169
-48.786251 66.467628 -0.43323553
-48.597095 66.517349 -0.43156382
-48.145157 66.385864 -0.42507279
-47.882385 66.412361 -0.48378566
-47.128559 66.422165 -0.40684828
-46.365799 66.411148 -0.36612862
-46.060463 66.570404 -0.32318962
-53.018223 66.627655 -0.51042509
-52.643482 66.732216 -0.3607688
-52.273819 66.727562 -0.56215882
-52.1558 66.861069 -0.53648973
-51.396679 66.710518 -0.3839567
-51.118084 66.81813 -0.48014274
-50.296886 66.754211 -0.3627609
-49.341541 66.824867 -0.52430934
-48.973389 66.760651 -0.42345366
-48.798344 66.786972 -0.52848327
-47.832161 66.841171 -0.41836679
-47.597485 66.855003 -0.4412342
-45.214977 66.794334 -0.3615652
-54.600727 67.198685 -0.41494721
-54.20385 67.057228 -0.32944509
-53.954601 67.052704 -0.42088091
-52.560497 67.081444 -0.38044265
-52.39772 67.059357 -0.32405654
-51.959759 67.101151 -0.37422389
-51.15871 67.036324 -0.49656788
-50.96492 67.15789 -0.52630675
-50.566792 67.026711 -0.55507874
-50.152969 66.948204 -0.38480541
-48.478134 67.05455 -0.3909018
-48.204884 67.147308 -0.3112486
-47.790527 66.938148 -0.4622328
-47.4198 66.967461 -0.41949898
-46.578133 66.950226 -0.32722127
-45.735313 67.051163 -0.36034292
-39.701782 67.120712 -0.43980759
-54.686333 67.276154 -0.44592136
-54.447941 67.225716 -0.45157301
-54.008228 67.213799 -0.38615543
-53.578403 67.374649 -0.39255008
-53.254883 67.375641 -0.38178316
-52.99519 67.477165 -0.49428287
-52.665565 67.411255 -0.42774332
-52.113327 67.329987 -0.46923557
-51.73801 67.371613 -0.4545992
-51.247726 67.4076 -0.54859954
-49.422264 67.319908 -0.50105399
-49.186333 67.348587 -0.49344972
-48.390614 67.412155 -0.40674454
-48.2169 67.44416 -0.4530409
-46.82552 67.201164 -0.4750562
-39.715179 67.215294 -0.32861188
-39.401325 67.315536 -0.37041393
-39.205708 67.390747 -0.53955543
-53.005856 67.58255 -0.50316328
-52.672779 67.617912 -0.4413726
-52.198776 67.780258 -0.37565964
-51.733692 67.629082 -0.50243878
-51.487572 67.608925 -0.54930443
-51.106033 67.74765 -0.41343293
-50.112926 67.512177 -0.47154921
-50.071152 67.750755 -0.576464
-49.71962 67.724396 -0.44316149
-49.330097 67.618279 -0.47245517
-49.160316 67.620682 -0.58812553
-48.726269 67.798203 -0.47622469
-48.477547 67.736084 -0.54245692
-48.165009 67.618126 -0.322377
-47.188972 67.72673 -0.38952574
-47.039394 67.726677 -0.57422137
-46.484974 67.591187 -0.43914956
-39.720379 67.636536 -0.36340961
-39.436954 67.658455 -0.51122016
-39.018986 67.714546 -0.49481842
-53.971077 68.03125 -0.35674667
-53.558834 68.03627 -0.58566505
-52.925335 67.886597 -0.4071188
-52.620636 67.928879 -0.43082404
-52.450027 67.870323 -0.36871663
-49.273895 68.024071 -0.47684726
-48.470867 67.996758 -0.45122698
-46.956387 67.860748 -0.38367414
-46.781227 67.895439 -0.4817076
-39.38369 67.960579 -0.53462887
-39.109985 67.875412 -0.35020152
-60.788937 68.258942 -0.3953498
-58.593712 68.39817 -0.33383608
-51.803173 68.147957 -0.47527248
-50.537949 68.261787 -0.44222245
-50.358177 68.221802 -0.35774016
-48.518097 68.116982 -0.58104241
-48.211441 68.269592 -0.4467032
-45.770958 68.315842 -0.36217535
-44.553535 68.398636 -0.44075003
-43.666851 68.286598 -0.39571562
-42.974892 68.211449 -0.53178281
-42.758198 68.212868 -0.39320788
-42.357979 68.202568 -0.4022176
-42.239254 68.348061 -0.39835471
-41.512074 68.213631 -0.38766676
-41.30183 68.338173 -0.43563634
-41.068825 68.358421 -0.541619
-40.405163 68.305092 -0.488089
-39.093704 68.206863 -0.45193407
-38.511147 68.241364 -0.37107563
-38.205345 68.25396 -0.4074977
-38.03727 68.172348 -0.41423005
-60.140526 68.566544 -0.46875
-55.398373 68.518158 -0.42575783
-51.739704 68.638214 -0.45608884
-50.749859 68.650116 -0.35980102
-49.09623 68.493782 -0.58173829
-48.284523 68.45842 -0.33548018
-47.594429 68.503212 -0.52883226
-46.826607 68.597572 -0.33233881
-46.768421 68.532715 -0.48606101
-46.16008 68.585823 -0.35507312
-45.60947 68.409523 -0.32668942
-45.303032 68.690056 -0.53993821
-45.284081 68.417282 -0.39798161
-44.565575 68.409874 -0.37437689
-43.178642 68.478073 -0.44039437
-42.772598 68.646805 -0.46646386
-42.505592 68.552467 -0.55826151
-41.717136 68.615982 -0.52539074
-41.547279 68.570541 -0.38800159
-41.152554 68.641647 -0.32552904
-41.01054 68.600914 -0.38277411
-40.791729 68.573601 -0.44838104
-39.672047 68.549088 -0.32384503
-39.335354 68.575157 -0.44193095
-39.02235 68.474678 -0.52667516
-38.837788 68.617378 -0.52950948
-38.601936 68.650986 -0.56550056
-38.307022 68.693703 -0.36710867
-60.127602 68.850761 -0.4674443
-59.880505 68.939323 -0.39829236
-59.400272 68.95578 -0.44346872
-51.619957 68.747353 -0.56616384
-50.373734 68.777039 -0.32267272
-49.015003 68.844734 -0.4654389
-48.24736 68.902092 -0.38315478
-47.630753 68.879013 -0.42381075
-46.961205 68.772156 -0.39486557
-45.713707 68.921768 -0.39894718
-45.453415 68.859459 -0.50488645
-45.298546 68.795227 -0.57111913
-44.917747 68.702805 -0.57122332
-43.855316 68.898582 -0.44262981
-42.835213 68.748093 -0.37666965
-42.456482 68.837105 -0.34222513
-41.273949 68.817184 -0.33076274
-39.478043 68.768822 -0.38121426
-39.024193 68.928452 -0.56381404
-38.778526 68.983917 -0.35622233
-59.071293 69.012863 -0.30968231
-56.989918 69.034355 -0.41550806
-50.327274 69.143082 -0.41982958
-47.179897 69.287354 -0.53392029
-47.09589 69.290375 -0.52223319
-46.181023 69.096657 -0.37319651
-45.682869 69.223846 -0.50649643
-45.46051 69.115211 -0.50584155
-43.105335 69.27626 -0.43732414
-42.684498 69.246521 -0.36352605
-42.408707 69.23909 -0.3414371
-41.11491 69.101006 -0.56795949
-40.710186 69.195129 -0.54138309
-40.051353 69.079834 -0.42641157
-39.40807 69.140556 -0.39050886
-39.063847 69.08754 -0.35915309
-38.897438 69.1455 -0.49701142
-37.963627 69.278976 -0.47419208
-37.622437 69.253014 -0.45122257
-37.334137 69.185181 -0.48204237
-37.099209 69.193726 -0.47650704
-51.409698 69.592438 -0.45718363
-50.122173 69.432037 -0.32164204
-49.267071 69.425438 -0.46903265
-44.591454 69.388496 -0.59146017
-43.101204 69.377357 -0.42069727
-42.779961 69.427544 -0.51319325
-42.342266 69.312378 -0.36362568
-41.300758 69.435112 -0.57402831
-40.529404 69.408508 -0.43534046
-40.014194 69.49321 -0.41994247
-39.586781 69.447853 -0.56839424
-38.766403 69.581802 -0.37246263
-37.92271 69.434525 -0.45617938
-37.658844 69.504669 -0.45890465
-37.397079 69.435738 -0.4955003
-37.013054 69.453758 -0.54977387
-33.6334 69.449585 -0.42577338
-33.449432 69.452141 -0.54772764
-50.463631 69.69857 -0.38523802
-46.299606 69.806099 -0.58561361
-45.731945 69.800102 -0.5939194
-44.409367 69.637321 -0.56761771
-43.446621 69.693047 -0.31450373
-42.34787 69.673714 -0.33096644
-41.443138 69.814644 -0.43684202
-41.247574 69.689301 -0.49753311
-40.215027 69.629959 -0.42530873
-40.114609 69.631531 -0.42758211
-39.305321 69.715599 -0.43165416
-39.213795 69.785431 -0.39554679
-38.937523 69.872711 -0.52484024
-38.493038 69.68116 -0.32926324
-38.162109 69.84687 -0.32512605
-38.072773 69.898453 -0.30567089
-37.661469 69.808853 -0.58301437
-33.334038 69.754105 -0.36200997
-33.276321 69.764153 -0.41774794
-50.525658 70.08374 -0.32179466
-47.839924 70.142754 -0.58970153
-46.282749 70.070831 -0.58299977
-44.590919 69.974602 -0.581752
-44.127945 70.143265 -0.5326857
-42.171635 69.952278 -0.49902615
-41.730305 70.183487 -0.40169555
-40.991844 69.977684 -0.42866567
-40.514648 69.920647 -0.46992666
-40.494434 70.025711 -0.41387019
-37.856796 69.904068 -0.51585358
-37.660213 70.026505 -0.45599446
-37.373821 70.130791 -0.38171133
-32.765419 70.115799 -0.46664089
-32.042976 70.188469 -0.42039824
-49.017715 70.211014 -0.43267912
-46.417469 70.378563 -0.49355385
-42.708839 70.252426 -0.38355806
-40.934677 70.403412 -0.41213354
-38.723999 70.324936 -0.33651298
-38.582363 70.246452 -0.57116574
-38.309574 70.246979 -0.52855724
-38.035637 70.259415 -0.54959571
-37.578526 70.432762 -0.46907943
-37.470284 70.210884 -0.32589993
-37.024036 70.320412 -0.4001509
-36.712032 70.486557 -0.52156067
-36.311119 70.423553 -0.41490963
-35.940071 70.385574 -0.41214082
-35.036724 70.239616 -0.35738504
-34.799335 70.26683 -0.30323073
-33.218346 70.265388 -0.35333213
-32.816456 70.234146 -0.32349652
-31.962934 70.372307 -0.47643581
-45.742699 70.551788 -0.5556221
-45.443546 70.720894 -0.36944464
-42.079166 70.649063 -0.40140197
-40.845306 70.600853 -0.47178152
-40.619503 70.506866 -0.58350545
-40.091537 70.672676 -0.39181429
-39.464203 70.642746 -0.31125489
-39.13176 70.692474 -0.30444413
-38.187752 70.530281 -0.46902609
-37.880451 70.630318 -0.41576877
-37.629768 70.573303 -0.39568025
-37.235191 70.656204 -0.38004547
-37.103806 70.757462 -0.48451614
-36.711777 70.535622 -0.58248693
-36.388527 70.746315 -0.35562012
-36.15358 70.76622 -0.43493626
-35.724785 70.76947 -0.36158273
-33.983631 70.715446 -0.35595745
-33.773041 70.699615 -0.43038198
-33.421337 70.720322 -0.32515553
-33.24334 70.580368 -0.59245241
-32.470665 70.530914 -0.43242627
-32.197838 70.617523 -0.46188575
-55.075981 71.006279 -0.36319143
-45.744812 70.937592 -0.55710554
-40.705448 70.909859 -0.34050328
-39.107594 70.955338 -0.36496514
-38.508118 70.975014 -0.33943319
-37.969803 70.956642 -0.41540802
-37.359924 70.918594 -0.41903582
-36.848034 70.8806 -0.40183723
-36.352478 70.869484 -0.57721573
-36.181782 70.92955 -0.49961826
-35.914059 70.965118 -0.46311125
-35.130852 71.079643 -0.53101337
-33.759796 70.847733 -0.42628977
-33.140362 70.996613 -0.54841781
-32.881836 70.876244 -0.3082529
-62.133678 71.380829 -0.51334667
-52.832466 71.157532 -0.30148196
-45.880024 71.165955 -0.5087871
-45.06076 71.258949 -0.55168408
-44.227264 71.14814 -0.55158514
-43.019161 71.188942 -0.41455892
-39.71405 71.281227 -0.58002204
-39.527004 71.267868 -0.32525256
-37.845089 71.128769 -0.43423471
-37.487061 71.277328 -0.39497849
-36.95879 71.290176 -0.54648358
-36.364342 71.32431 -0.36211509
-36.040882 71.336975 -0.54039955
-35.926746 71.201736 -0.4494625
-34.846806 71.315567 -0.4779495
-34.10149 71.302895 -0.55309933
-33.05056 71.123291 -0.48987865
-32.957504 71.165977 -0.4639065
-32.544556 71.280243 -0.40808588
-31.963482 71.360931 -0.32380688
-30.819443 71.328651 -0.58007133
-30.131214 71.18985 -0.31135386
-29.846071 71.364639 -0.44923151
-29.684322 71.29055 -0.44853938
-29.013138 71.279343 -0.41010392
-62.152348 71.483612 -0.51261216
-45.031792 71.498909 -0.59882939
-42.467972 71.415451 -0.40110376
-40.600986 71.674019 -0.37606016
-39.370918 71.531952 -0.33922455
-38.533264 71.650764 -0.56015861
-38.277332 71.610962 -0.31329101
-37.33535 71.599518 -0.4655568
-36.92606 71.430481 -0.56889236
-36.86507 71.514137 -0.56987119
-35.74868 71.465004 -0.42431322
-34.918549 71.530853 -0.4961386
-34.660645 71.598885 -0.46887696
-34.347862 71.529465 -0.40067613
-33.031136 71.582771 -0.40020016
-32.945435 71.58297 -0.40119833
-32.014717 71.418518 -0.31611022
-30.332104 71.606102 -0.38810357
-29.839453 71.440529 -0.46315145
-29.544367 71.483582 -0.370258
-28.81258 71.609322 -0.39938223
-46.176212 71.837975 -0.54109311
-42.076813 71.953545 -0.31500277
-40.601925 71.819275 -0.41959915
-38.806259 71.968216 -0.43995994
-38.131481 71.702728 -0.35903546
-37.915298 71.818588 -0.53767198
-37.618183 71.940025 -0.32694048
-37.396931 71.939354 -0.37971622
-37.05545 71.972717 -0.44880164
-36.747013 71.837021 -0.34807968
-35.889362 71.8731 -0.36579856
-35.675983 71.905045 -0.35198575
-30.605101 71.74324 -0.32499218
-30.47049 71.924103 -0.48895869
-30.060173 71.873367 -0.58585775
-29.893612 71.762856 -0.43993574
-29.555008 71.835892 -0.42126194
-29.214911 71.828865 -0.48765394
-28.884525 71.881348 -0.30572528
-52.78495 72.079735 -0.30900863
-52.17358 72.219879 -0.59732866
-42.544556 72.008102 -0.33489951
-38.81955 72.045555 -0.48179087
-38.102123 72.104408 -0.41009107
-38.077572 72.289764 -0.48716831
-37.599632 72.062279 -0.43192339
-37.330772 72.100426 -0.43993542
-37.147522 72.017998 -0.33723596
-36.519321 72.297867 -0.50703752
-34.335472 72.041557 -0.42877221
-33.562801 72.132614 -0.48052076
-32.082909 72.241035 -0.41385451
-31.458281 72.102089 -0.31069815
-30.098463 72.133118 -0.53670019
-29.88648 72.132225 -0.51221114
-29.513199 72.116127 -0.3934671
-29.339569 72.100815 -0.37525785
-27.19993 72.135696 -0.3505989
-26.194929 72.159012 -0.47591278
-52.111992 72.416008 -0.44173715
-51.843704 72.413956 -0.47526929
-38.595985 72.366318 -0.31828469
-38.098083 72.312561 -0.42531028
-37.406303 72.358902 -0.46126276
-36.103027 72.414307 -0.36961591
-35.768997 72.54879 -0.49803516
-35.46312 72.442734 -0.54882485
-33.769951 72.377853 -0.58862114
-32.43972 72.426468 -0.45698577
-32.399834 72.549057 -0.40437359
-31.614948 72.343956 -0.51282853
-30.086617 72.469215 -0.42861128
-29.825317 72.455566 -0.4761942
-29.677074 72.554985 -0.475198
-29.296143 72.53878 -0.44829544
-28.645916 72.419945 -0.46481371
-28.254524 72.430122 -0.39325696
-28.104071 72.424698 -0.48734924
-27.773487 72.59491 -0.432542
-51.805584 72.658905 -0.56752372
-38.579388 72.668526 -0.38288137
-37.241703 72.898712 -0.43378416
-37.083923 72.687836 -0.36422926
-36.795929 72.696953 -0.46946386
-36.028709 72.636406 -0.49540466
-35.74213 72.775742 -0.41568696
-32.758644 72.841759 -0.39895973
-32.590919 72.674423 -0.55543864
-32.121498 72.871284 -0.47875398
-31.822807 72.876427 -0.47332951
-31.53661 72.857475 -0.36475664
-31.011585 72.884094 -0.57957762
-30.706085 72.743774 -0.46965793
-30.348064 72.89624 -0.56988758
-29.586302 72.824036 -0.45646298
-28.75787 72.696701 -0.35401151
-27.965929 72.816376 -0.52682263
-26.971098 72.685196 -0.32668385
-37.960846 72.973785 -0.48623145
-37.610725 73.097336 -0.42245263
-35.91798 73.01432 -0.49380347
-35.131298 73.135521 -0.5751493
-34.769432 72.966148 -0.58306384
-34.479095 73.127335 -0.39984182
-33.140205 73.191696 -0.46162561
-32.804039 72.949173 -0.51122522
-30.735186 72.977837 -0.47463694
-30.447298 72.944458 -0.40506047
-29.76943 73.12368 -0.46351367
-29.592798 73.113647 -0.43746829
-29.360788 72.902863 -0.40236598
-28.40527 73.189674 -0.37888116
-27.915226 73.082428 -0.33979282
-27.221413 73.079636 -0.42465678
-26.708689 73.041939 -0.49323329
-26.452688 73.086006 -0.30824971
-38.751812 73.469566 -0.43647492
-38.492565 73.435364 -0.48933408
-38.381348 73.285217 -0.34611794
-37.361183 73.266586 -0.4794949
-37.106255 73.38765 -0.56261158
-36.713638 73.264122 -0.35350615
-36.380665 73.468239 -0.52160305
-34.381664 73.31057 -0.50968033
-33.186337 73.345894 -0.51154304
-32.854206 73.250175 -0.58257234
-31.644011 73.404266 -0.57179469
-31.121212 73.470123 -0.56369811
-30.808624 73.251953 -0.51354778
-30.301992 73.412964 -0.38263574
-29.927364 73.337433 -0.45849565
-29.649414 73.20887 -0.46451229
-29.362593 73.400246 -0.55384839
-28.382067 73.360855 -0.35738564
-27.730125 73.206085 -0.45897418
-27.072056 73.240356 -0.51469928
-44.686657 73.622429 -0.53871512
-38.785446 73.659111 -0.37232181
-38.53883 73.608147 -0.49585614
-37.855148 73.556175 -0.53718448
-37.034752 73.675499 -0.52026236
-35.57782 73.795708 -0.53738827
-33.980179 73.666229 -0.56807292
-31.078716 73.509651 -0.41685352
-29.562435 73.707626 -0.4389171
-28.570139 73.789062 -0.4647077
-28.285538 73.722885 -0.51611423
-27.020449 73.511337 -0.4983817
-26.913059 73.570724 -0.36536613
-26.584671 73.771416 -0.31929567
-26.006342 73.651123 -0.3418968
-45.063709 74.021469 -0.59807611
-39.317848 74.034088 -0.48791564
-39.290047 74.034332 -0.51137638
-38.607151 74.095566 -0.39678365
-38.257832 73.893227 -0.53628856
-36.938953 73.89624 -0.39017531
-36.751972 73.833321 -0.59351259
-35.400307 73.900993 -0.4062098
-31.888556 74.077614 -0.56745535
-31.058342 73.860916 -0.40961266
-30.477604 73.965416 -0.58379412
-29.477615 73.81443 -0.38812369
-29.338129 73.873489 -0.49121976
-28.920887 74.035187 -0.53020656
-27.588476 74.016113 -0.43687248
-39.326012 74.172089 -0.43789315
-38.631256 74.260216 -0.46479997
-28.575926 74.110519 -0.41978392
-28.160391 74.259323 -0.48991609
-25.926497 74.317619 -0.3209976
-38.93071 74.684952 -0.55862892
-38.299458 74.542236 -0.38710362
-38.019791 74.646004 -0.57586926
-33.038773 74.423241 -0.54126847
-28.725792 74.607918 -0.48093408
-27.61256 74.525002 -0.34275305
-27.328211 74.559647 -0.4551408
-23.523952 74.43708 -0.33294979
-39.689583 74.993156 -0.49496183
-38.229393 74.873123 -0.4964312
-37.866787 74.862747 -0.52523226
-37.446228 74.949738 -0.56588817
-36.6791 74.883759 -0.58707798
-34.745987 74.885551 -0.58651036
-33.988693 74.830086 -0.48532695
-31.597918 74.975807 -0.46328789
-29.550055 74.959999 -0.57953119
-29.256739 74.84359 -0.55563372
-29.080137 74.976974 -0.55991375
-28.365374 74.842972 -0.49635512
-27.152956 74.840561 -0.41528845
-39.664604 75.103439 -0.45349753
-38.925385 75.086639 -0.52321428
-38.512745 75.198936 -0.44345146
-38.268124 75.227486 -0.49258852
-37.603298 75.237045 -0.50258756
-37.224659 75.247566 -0.59948874
-37.013939 75.035751 -0.58000219
-33.913925 75.164589 -0.44200885
-29.532818 75.165108 -0.44347516
-28.864006 75.138283 -0.37814298
-28.384214 75.07283 -0.38679019
-27.292738 75.053406 -0.49944749
-23.466755 75.151604 -0.35453233
-23.018305 75.124786 -0.30722725
-38.496513 75.351715 -0.42473868
-37.425865 75.531616 -0.50581723
-37.163486 75.594673 -0.38836002
-36.611839 75.385979 -0.59546232
-35.852779 75.534477 -0.45497718
-35.295364 75.409851 -0.59136462
-32.202679 75.588173 -0.50310779
-31.825035 75.521965 -0.4844923
-31.540722 75.347641 -0.47290736
-29.494358 75.466614 -0.45145175
-28.552843 75.487938 -0.32589254
-28.441746 75.317398 -0.54100078
-27.225647 75.432312 -0.51383466
-39.803082 75.687248 -0.51152819
-39.04451 75.822479 -0.41274655
-38.516529 75.701134 -0.51698202
-37.448086 75.629562 -0.52171373
-37.096069 75.742653 -0.56119037
-32.027355 75.719772 -0.58390474
-31.422876 75.722916 -0.58913469
-29.650787 75.753014 -0.53516823
-28.73218 75.741341 -0.55166101
-28.019505 75.665977 -0.38634846
-39.818039 75.97525 -0.32070985
-39.393879 76.041634 -0.45393497
-38.957657 75.908951 -0.33030859
-38.53323 76.064941 -0.47502953
-37.586567 76.037689 -0.34336442
-29.360985 75.983856 -0.54357153
-29.071791 75.996117 -0.48222625
-28.594362 76.031883 -0.48643792
-27.682917 76.028336 -0.50656438
-30.176691 76.401291 -0.42593306
-28.630251 76.468552 -0.47797227
-28.274883 76.343605 -0.4806655
-26.995609 76.411476 -0.51893777
-29.343349 76.569633 -0.4797191
-29.333513 77.047722 -0.33581582
-28.078121 77.963928 -0.38463292
-86.849785 80.997818 -0.30377525
-87.652145 81.093063 -0.47219989
-87.052811 81.123413 -0.429593
-86.856018 81.170341 -0.46854171
-39.805683 81.290489 -0.50809574
-87.106422 81.461792 -0.47794095
-86.786461 81.418594 -0.38971204
-86.561775 81.494484 -0.45415589
-86.285683 81.531364 -0.39182454
-85.285744 81.315041 -0.45237303
-84.968208 81.323097 -0.53634971
-84.505272 81.533638 -0.43788707
-41.095932 81.354271 -0.55577147
-39.169289 81.396439 -0.48100197
-86.827141 81.657784 -0.45328552
-86.524719 81.656334 -0.49387708
-86.283531 81.629539 -0.34166753
17.009542 81.839561 -0.36072329
-40.337673 82.118301 -0.56621033
-39.111465 82.072952 -0.47075281
-38.510731 82.176422 -0.53876758
16.675991 81.960457 -0.39102927
17.044832 81.984856 -0.37274721
17.901314 81.96814 -0.31688583
-40.110134 82.297302 -0.56578225
-39.809193 82.393417 -0.5386228
-39.141537 82.260864 -0.53230476
-38.850418 82.420715 -0.58491701
-38.534866 82.332092 -0.57041901
-21.41334 82.475578 -0.52460372
-40.390305 82.644699 -0.46818486
-39.490948 82.755981 -0.55297238
-21.628868 82.66098 -0.456559
17.19429 82.606804 -0.52146226
-80.937164 83.016586 -0.3709344
-79.1241 82.974541 -0.41355929
-41.133194 83.012817 -0.50169224
-21.462185 82.999496 -0.50907356
-79.654572 83.248024 -0.40846565
-79.345131 83.134926 -0.47455272
-41.698505 83.35601 -0.55717993
-41.176609 83.178085 -0.47823077
-41.019245 83.244125 -0.47975495
-40.16338 83.181671 -0.50830638
-78.312241 83.623032 -0.47407299
-72.330353 83.465538 -0.56893009
-41.812767 83.592255 -0.59542811
-40.89426 83.415894 -0.53696519
-40.635986 83.520416 -0.53876662
-39.669514 83.43605 -0.51558071
-39.484722 83.608276 -0.52989364
-38.676964 83.613739 -0.55656952
-37.63805 83.573586 -0.59993559
-78.253983 83.876801 -0.5270251
-40.655926 83.897186 -0.54369146
-39.526505 83.732376 -0.58602107
-39.273952 83.775711 -0.56959307
-79.796661 84.218933 -0.31991804
-79.248062 84.141006 -0.31185755
-77.784569 84.164268 -0.43725318
-41.592937 84.113243 -0.5863775
-41.234207 84.289253 -0.5996027
-40.777111 84.17038 -0.31434381
-39.803879 84.502907 -0.59524816
-77.728981 84.705116 -0.4173165
-40.974606 84.713669 -0.55310124
-39.834133 84.635796 -0.57751048
-39.161701 84.775314 -0.5412035
-38.813229 84.818619 -0.5521698
-78.471069 85.043633 -0.53244537
-40.913105 85.187752 -0.5540269
-31.832575 85.186966 -0.53852731
-63.35569 85.444115 -0.41331792
-40.90554 85.267014 -0.54229158
-39.194233 85.272278 -0.57629901
-38.967976 85.380692 -0.59984517
-31.458208 85.262398 -0.55207932
-76.885628 85.566444 -0.40250945
-62.051121 85.655647 -0.56922054
-39.905048 85.789986 -0.47269225
-39.384384 85.583908 -0.57169998
-38.443996 85.676918 -0.56868488
-39.835361 85.94371 -0.58265471
-30.319958 85.896606 -0.57165897
-24.479691 86.383148 -0.56353575
-24.116066 86.288406 -0.45392543
-23.957514 86.319962 -0.54512292
-22.942993 86.214394 -0.51157248
-22.701637 86.376083 -0.5589655
-22.118425 86.28894 -0.55819398
-24.423119 86.451164 -0.53022927
-24.072502 86.597839 -0.59599072
-23.740726 86.423485 -0.4084613
-39.519974 86.90686 -0.55217576
-30.580317 86.870338 -0.51774013
-23.969734 86.875175 -0.48539025
-24.173326 87.240776 -0.52136689
-23.442001 87.157532 -0.54132086
-55.810802 87.499458 -0.36529452
-40.060429 87.435829 -0.56418973
-24.742546 87.52742 -0.56168121
-23.411669 87.342422 -0.57232201
-23.119835 87.536301 -0.59390104
-55.923317 87.651352 -0.35802338
-55.74564 87.700356 -0.38368022
-23.228245 87.687538 -0.55757737
-22.445852 87.745926 -0.5486905
-48.797192 88.708557 -0.52366441
-16.463522 89.188904 -0.46027169
-38.118664 90.876549 -0.3666338
-38.911896 91.020279 -0.37070423
-36.620087 91.638969 -0.47257459
-32.607761 92.903374 -0.33046928
-15.045422 94.09333 -0.41027403
-16.722704 94.750168 -0.56510764
-58.882504 95.079079 -0.59382862
-17.734142 95.077003 -0.58675599
-58.883045 95.269691 -0.42745119
-58.503181 95.32325 -0.32106519
-58.277168 95.327072 -0.44721586
-58.087273 95.196884 -0.41211382
-17.432167 95.365883 -0.59095323
-17.046463 95.23539 -0.30961972
-15.760518 95.344521 -0.35755101
-15.495028 95.299332 -0.36227301
-58.91346 95.614861 -0.44335544
-58.541718 95.503845 -0.38802353
-58.330242 95.544296 -0.44895709
-57.980186 95.568924 -0.41033262
-17.407345 95.563614 -0.49912521
-17.270771 95.56839 -0.38239992
-15.406988 95.527847 -0.34334111
-13.518832 95.651932 -0.40713978
-12.708625 95.668434 -0.45515084
16.260946 95.634598 -0.54622358
16.637396 95.581505 -0.52440131
-58.706673 95.912338 -0.57624906
-58.268639 95.811279 -0.45766616
-17.921051 95.917175 -0.56627554
-16.951801 95.854431 -0.41719711
-16.438351 95.753708 -0.59877759
-15.591979 95.722305 -0.4397037
-14.115163 95.753685 -0.34240457
-13.807186 95.995613 -0.46054953
-10.258595 95.814911 -0.52004725
-10.040503 95.932587 -0.39028764
-9.8398275 95.961678 -0.37939656
-9.5003643 95.931892 -0.5275293
16.519718 95.793915 -0.44250557
-58.221378 96.055412 -0.37804154
-17.949879 96.046524 -0.31332552
-12.606331 96.047249 -0.43100986
-8.7511396 96.463593 -0.45708573
-8.7620087 96.719162 -0.50098091
-8.5034294 96.77858 -0.4721806
-7.8270135 96.796844 -0.44813401
-6.6133075 96.825386 -0.40694696
-8.4953346 96.997673 -0.37812173
-6.5103621 97.034187 -0.31477311
-1.2757515 97.157387 -0.48302668
-93.874573 97.21917 -0.44014829
-3.2706096 97.622124 -0.51945341
-1.7839098 97.65152 -0.51091635
-1.2792282 97.558685 -0.48579377
-1.029929 97.644516 -0.42382255
-0.13712221 97.734383 -0.33550727
0.72116965 97.713829 -0.56842005
0.91902769 97.649857 -0.54917181
-0.65800393 97.90657 -0.41082668
