# .PCD v0.7 - Point Cloud Data file format
VERSION 0.7
FIELDS x y z
SIZE 4 4 4
TYPE F F F
COUNT 1 1 1
WIDTH 1463
HEIGHT 1
VIEWPOINT 0 0 0 1 0 0 0
POINTS 1463
DATA ascii
-62.961197 112.82102 -0.82057923
-62.249336 112.9922 -0.79870111
-61.117813 113.01318 -0.85240632
-51.920689 113.03668 -0.72404641
-49.483021 113.04918 -0.85180324
-43.696846 112.88853 -0.67420614
-43.334217 113.0083 -0.78043222
-40.889946 112.81267 -0.79389644
-38.062672 112.81453 -0.65548533
-37.405472 113.02142 -0.6830678
-37.109188 112.96389 -0.64743203
-35.842007 112.97751 -0.640149
-34.275787 113.00414 -0.63654292
-31.432808 113.03814 -0.81391329
-30.464546 112.97247 -0.84138125
-29.274357 112.93749 -0.77103817
-28.929621 112.94598 -0.85572416
-25.878368 112.94978 -0.7456575
-25.660212 112.83056 -0.85853243
-24.612236 113.03189 -0.83795041
-24.59329 112.96577 -0.88117039
-22.609118 113.04423 -0.72249556
-21.644991 112.87001 -0.72779268
-21.406273 112.94312 -0.78233624
-21.210464 113.03284 -0.73035401
-19.829405 112.8354 -0.89835596
-19.720331 112.80448 -0.83990473
-19.445707 112.88992 -0.86103225
-19.16728 112.91966 -0.79940921
-18.793055 112.85222 -0.7431528
-14.8901 113.01274 -0.74111956
-12.410537 112.90936 -0.78659469
-12.156927 113.01132 -0.83435535
-11.828747 113.05415 -0.83413839
-95.49234 113.37592 -0.85682851
-94.298363 113.28385 -0.82904309
-68.056328 113.26548 -0.84105426
-63.613396 113.29436 -0.70547354
-62.316299 113.16699 -0.86021417
-61.393013 113.36307 -0.85109377
-60.817741 113.23608 -0.82964003
-60.390907 113.21519 -0.71457452
-59.28857 113.16748 -0.71079385
-53.377216 113.16615 -0.8376298
-41.554115 113.18011 -0.80697948
-36.027443 113.1844 -0.70405704
-34.300842 113.10673 -0.6147629
-30.73053 113.21956 -0.76786745
-30.288124 113.25665 -0.79316086
-29.286478 113.35724 -0.81676835
-29.002701 113.23569 -0.85103154
-28.049662 113.33662 -0.81495798
-27.823637 113.30872 -0.82996637
-27.409393 113.23396 -0.86266255
-26.839396 113.29734 -0.78472751
-24.140932 113.17863 -0.7316615
-22.604073 113.1356 -0.79828709
-22.265896 113.18554 -0.72328061
-21.623041 113.36295 -0.62426162
-20.879036 113.22113 -0.79227746
-17.310743 113.17285 -0.78272891
-14.408706 113.25547 -0.77485496
-14.282446 113.23831 -0.84657204
-13.632252 113.23215 -0.75574785
-13.443653 113.15891 -0.82014251
-13.066772 113.39542 -0.69663078
-12.69973 113.39441 -0.89161545
-12.371793 113.35245 -0.81369066
-12.143506 113.198 -0.83693391
-11.82371 113.16455 -0.85152632
-11.597145 113.28622 -0.84149897
-2.5580347 113.25234 -0.68768758
-95.475502 113.40292 -0.84088069
-66.031067 113.69156 -0.6883626
-65.356293 113.61674 -0.73866999
-64.229523 113.43613 -0.78585541
-62.494362 113.50764 -0.79338306
-62.1068 113.59828 -0.72632551
-61.608494 113.46091 -0.80433482
-61.411983 113.40082 -0.85491252
-60.770813 113.43968 -0.63762194
-60.329926 113.57394 -0.79823238
-54.864689 113.51099 -0.68010712
-54.206707 113.42529 -0.88495433
-53.471985 113.66769 -0.88543332
-53.257801 113.60167 -0.6513291
-52.760757 113.58914 -0.85218227
-48.33136 113.68856 -0.86312503
-35.793953 113.51456 -0.66739196
-31.161137 113.53213 -0.74897683
-30.606466 113.60509 -0.66325408
-29.509617 113.4463 -0.74913645
-29.269318 113.53743 -0.75414884
-28.725666 113.49271 -0.85072833
-27.926634 113.60803 -0.83511037
-25.873781 113.44691 -0.89142513
-25.513193 113.52575 -0.86945027
-22.823648 113.43736 -0.84721363
-22.333708 113.63772 -0.79540974
-22.014221 113.67239 -0.67405021
-21.814983 113.52317 -0.81145024
-21.190935 113.58486 -0.83981848
-17.066355 113.5039 -0.89198774
-15.400776 113.65681 -0.80639803
-14.196198 113.56266 -0.84267449
-13.661027 113.58765 -0.74547613
-13.047194 113.54498 -0.77244824
-12.867123 113.57807 -0.83896315
-12.396688 113.4108 -0.87245488
-12.095641 113.51069 -0.83211946
-8.1598501 113.68119 -0.6026985
-5.3406343 113.4978 -0.6156224
-2.5265653 113.415 -0.71148503
-80.002441 113.7339 -0.80123681
-64.057991 113.87541 -0.75269002
-63.243404 113.79015 -0.77556008
-62.888218 113.89163 -0.87464511
-62.117878 113.74709 -0.85232627
-60.71817 113.94668 -0.88859689
-60.465107 113.81991 -0.60569799
-60.074223 113.92944 -0.84802562
-54.677891 113.72006 -0.88931113
-53.122066 113.76599 -0.78864467
-47.549431 113.98784 -0.85068673
-46.080952 113.91849 -0.81503499
-37.937637 113.93124 -0.69614518
-32.160217 113.86655 -0.72584462
-29.462444 113.70436 -0.88053632
-29.24012 113.7829 -0.83752644
-27.624325 113.89695 -0.89818799
-24.495344 113.82225 -0.85812497
-22.994888 113.8815 -0.82013404
-22.592031 113.94733 -0.79943711
-20.268894 113.78929 -0.82451391
-19.750664 113.86591 -0.80039746
-17.875893 113.77977 -0.8532967
-14.007978 113.80738 -0.61955065
-13.609213 113.8506 -0.82815492
-11.968391 113.77966 -0.85608304
-10.772814 113.89066 -0.74283403
-6.9338465 113.82735 -0.68662506
-6.6556282 113.73085 -0.69463974
-82.267738 114.07926 -0.85241282
-66.815887 114.11246 -0.71186638
-63.061916 114.21066 -0.76305628
-62.536247 114.19745 -0.87027192
-53.709656 114.27605 -0.89535421
-53.128075 114.20992 -0.68895984
-51.989868 114.11309 -0.89374673
-37.968781 114.07817 -0.71862978
-37.176846 114.2943 -0.62278497
-28.855162 114.20732 -0.89455402
-25.373335 114.25519 -0.81544787
-24.814995 114.12605 -0.8763777
-23.21369 114.12402 -0.75298601
-22.583738 114.24771 -0.78695345
-20.033951 114.03262 -0.65787321
-19.791363 114.25249 -0.81290019
-18.766504 114.25516 -0.89030468
-15.402434 114.19935 -0.7658698
-12.649279 114.22792 -0.80478656
-12.563198 114.01346 -0.82602662
-11.584173 114.16103 -0.85390502
-4.6255426 114.15815 -0.71185708
-3.6513562 114.19292 -0.66273624
-3.4037261 114.2021 -0.64679348
-84.140823 114.3832 -0.8789416
-80.196815 114.43555 -0.76294374
-63.810661 114.37034 -0.6656183
-61.623821 114.59743 -0.88803226
-53.866703 114.36636 -0.83869135
-52.315781 114.47115 -0.78621262
-51.489471 114.42905 -0.82965946
-43.48856 114.57395 -0.88726526
-37.149727 114.38663 -0.67017233
-30.786623 114.4185 -0.79875046
-29.483395 114.44289 -0.87602252
-28.704937 114.43674 -0.64250904
-25.070538 114.5226 -0.8876695
-21.141068 114.42933 -0.73702115
-18.770655 114.39935 -0.87722623
-17.751781 114.44402 -0.84654355
-16.492628 114.34243 -0.81060517
-11.838392 114.44411 -0.7641902
-5.5080914 114.45359 -0.70388037
-3.6730404 114.42133 -0.70401585
-3.4207704 114.3483 -0.71182847
-80.75341 114.69723 -0.77061313
-80.583572 114.6972 -0.63182682
-66.553978 114.88322 -0.7500906
-65.261406 114.85705 -0.78813249
-63.408535 114.73026 -0.88428712
-61.898911 114.82533 -0.8797754
-61.565327 114.70198 -0.89942706
-61.269981 114.78294 -0.87530071
-53.360939 114.83524 -0.81402403
-50.126026 114.89957 -0.7941618
-50.089493 114.81757 -0.81950378
-45.103401 114.66129 -0.86442506
-42.071232 114.86863 -0.7443434
-32.430042 114.79188 -0.79892915
-31.100779 114.80834 -0.78011435
-30.440598 114.73875 -0.82072937
-30.037876 114.78606 -0.75515062
-29.887932 114.7321 -0.82280707
-29.217459 114.8902 -0.87644225
-28.232103 114.71169 -0.86079568
-26.628351 114.74998 -0.77894932
-22.932711 114.65812 -0.83109403
-22.587294 114.76794 -0.7519052
-21.217638 114.7908 -0.73650384
-20.573948 114.76287 -0.64155054
-20.207472 114.65578 -0.84297323
-18.968872 114.89655 -0.82652277
-14.495382 114.69635 -0.79454255
-14.314196 114.88075 -0.8754499
-13.616375 114.64841 -0.78513229
-13.23 114.67488 -0.85462868
-12.365382 114.74981 -0.8055678
-11.743967 114.73306 -0.71735513
-11.569374 114.71587 -0.74246299
-10.674526 114.7921 -0.8711279
-6.0096765 114.83476 -0.70821667
-96.599266 114.97193 -0.87083757
-80.80336 114.93698 -0.86973655
-64.877151 115.15823 -0.74262154
-64.054848 115.01505 -0.82155371
-63.737785 115.02388 -0.87666941
-63.42252 114.91427 -0.85888398
-62.850376 115.06371 -0.72926575
-53.368526 114.91082 -0.85167778
-50.118687 114.92641 -0.82473761
-40.720387 115.06709 -0.88177341
-35.801754 115.06072 -0.68867278
-31.519585 115.12609 -0.69195777
-24.955292 115.15966 -0.88732511
-21.932589 115.07597 -0.84039289
-21.878326 115.0935 -0.82354689
-21.356361 114.98759 -0.82091063
-20.91003 114.96464 -0.76278508
-20.126242 115.12164 -0.83164132
-18.383339 115.08672 -0.86623353
-17.954395 115.03107 -0.86112571
-16.244081 115.1123 -0.8689093
-15.196667 115.1861 -0.66769898
-14.349933 115.15407 -0.66121382
-12.305798 114.92995 -0.84133548
-12.130941 115.1022 -0.79212093
-11.61078 115.12708 -0.85940403
-10.805371 115.15883 -0.87858003
-10.716923 114.91602 -0.85322553
-9.6742535 114.95284 -0.72441894
-5.7096815 114.9961 -0.66717225
-4.6530113 115.02244 -0.64894563
-3.2047465 114.92224 -0.70471561
-67.827019 115.29651 -0.828058
-64.525024 115.44201 -0.79221064
-64.479729 115.36857 -0.75842607
-63.394981 115.2555 -0.760813
-54.68586 115.42793 -0.87937462
-53.666275 115.44888 -0.87482864
-31.060547 115.37158 -0.77148926
-30.494183 115.3059 -0.82756996
-29.914368 115.33072 -0.82978278
-25.64485 115.22869 -0.89249241
-23.71969 115.41571 -0.83679491
-23.349808 115.33788 -0.86212701
-22.927996 115.33713 -0.73986125
-22.556072 115.42747 -0.78102934
-22.431828 115.46153 -0.86424446
-21.805645 115.29795 -0.81094402
-21.239046 115.29935 -0.85790533
-20.370487 115.28209 -0.85201252
-19.933178 115.45073 -0.79658163
-18.068954 115.42854 -0.78967279
-16.222294 115.43098 -0.73677862
-15.126168 115.4177 -0.78138548
-14.407712 115.23366 -0.70744765
-14.180574 115.38135 -0.75003719
-12.415336 115.34018 -0.70131665
-12.176858 115.2477 -0.81467426
-11.64097 115.3232 -0.77948356
-10.971229 115.39021 -0.86652583
-10.664894 115.3494 -0.88278764
-8.4056683 115.39809 -0.78162587
-8.3153648 115.37926 -0.68145144
-4.3330359 115.31985 -0.60362774
-4.1633749 115.3466 -0.7189877
-3.3674006 115.26759 -0.80140507
-3.2394929 115.42127 -0.79679364
-66.159378 115.65061 -0.87452179
-64.948616 115.52013 -0.64788419
-54.301651 115.78572 -0.8901763
-47.836914 115.76476 -0.80962908
-35.922165 115.58385 -0.79512078
-34.959805 115.68221 -0.68071824
-32.540554 115.73485 -0.72542262
-31.177498 115.61733 -0.82677585
-29.498056 115.6826 -0.88150156
-23.860168 115.60271 -0.79901057
-23.296566 115.61414 -0.67822707
-21.638931 115.56877 -0.7126689
-21.323748 115.72806 -0.76795512
-21.219419 115.58453 -0.78753614
-20.921795 115.58828 -0.70833045
-13.196858 115.60669 -0.86156154
-12.749438 115.65563 -0.81197494
-12.436666 115.62666 -0.80250537
-11.249859 115.65169 -0.88429201
-10.276914 115.72314 -0.80187082
-9.7040892 115.616 -0.8707453
-7.2225361 115.56051 -0.6578114
-6.1148243 115.71843 -0.71135861
-4.3006225 115.66055 -0.78591913
-4.1720438 115.55141 -0.7406047
-3.2545733 115.53495 -0.74456537
-2.8406467 115.51731 -0.68839055
-81.216911 116.0197 -0.87542748
-65.413826 116.00853 -0.80754519
-24.393324 115.99469 -0.85732853
-23.424791 116.06985 -0.67063093
-22.269751 115.90874 -0.81871653
-21.341904 115.82648 -0.70978898
-21.133999 115.95581 -0.78918982
-19.525843 115.97892 -0.8712551
-18.163746 115.91423 -0.88282669
-15.700048 115.81258 -0.85795069
-14.218226 116.05664 -0.77765071
-13.696896 115.82741 -0.80579001
-12.808115 115.86781 -0.84370524
-12.575645 115.87244 -0.82972872
-11.648898 115.991 -0.73561198
-11.275005 115.96707 -0.80643684
-10.992819 116.07357 -0.87923461
-10.169584 116.02463 -0.83748055
-3.258539 115.95309 -0.72634518
-79.002457 116.26435 -0.88302249
-62.489655 116.35654 -0.78657782
-55.620857 116.31064 -0.88300556
-51.634716 116.18831 -0.69243252
-50.691727 116.37636 -0.77666551
-27.780584 116.35155 -0.83849871
-23.470379 116.18323 -0.68057209
-23.165365 116.31264 -0.85232848
-22.325247 116.22323 -0.78570801
-22.022099 116.18269 -0.76386303
-20.008738 116.34383 -0.83346146
-17.9818 116.26544 -0.87650496
-12.676964 116.27209 -0.86567587
-11.089641 116.36098 -0.81496125
-10.029604 116.37012 -0.80743396
-5.8123913 116.27163 -0.695674
-4.6139288 116.25776 -0.72798312
-3.3482442 116.34511 -0.60602021
-3.0312605 116.19329 -0.67665863
-49.341465 116.53718 -0.8726595
-34.407078 116.67201 -0.8119024
-21.331684 116.62556 -0.69678438
-21.243757 116.48938 -0.84378636
-20.364492 116.47419 -0.82510865
-19.644796 116.52985 -0.70194131
-19.250681 116.49546 -0.63617206
-19.073158 116.62442 -0.80277365
-17.878979 116.64264 -0.83848155
-17.587282 116.44395 -0.88620728
-15.54123 116.68176 -0.75133938
-14.304582 116.66236 -0.69956106
-11.808604 116.46074 -0.80690324
-11.504495 116.5088 -0.86603475
-10.118044 116.41662 -0.88670111
-9.6005735 116.42848 -0.82307506
-4.6731672 116.43264 -0.73478502
-4.2807441 116.51882 -0.66074097
-3.9175274 116.64611 -0.65177047
-3.5225794 116.48402 -0.75495905
-67.062592 116.79418 -0.76230979
-66.198982 116.92959 -0.82298303
-63.816353 116.92776 -0.85295808
-37.053459 116.89355 -0.75188762
-31.411503 116.80138 -0.79370499
-23.178093 116.71956 -0.81167775
-21.700541 116.72833 -0.83611465
-21.218674 116.79035 -0.7602089
-20.729279 116.84296 -0.79459769
-19.772436 116.87201 -0.85117954
-19.365316 116.96138 -0.63197309
-19.102802 116.8013 -0.85961795
-14.285023 116.70136 -0.75825483
-13.619082 116.71886 -0.80390865
-13.376145 116.91593 -0.83212692
-12.548545 116.95555 -0.85552424
-12.207479 116.86585 -0.84280634
-9.9162331 116.9965 -0.78283137
-8.3169899 116.8959 -0.84919053
-4.345614 116.95794 -0.64488834
-3.3838627 116.77441 -0.75942391
-82.905182 117.2533 -0.7463178
-68.139709 117.0723 -0.84544688
-65.987709 117.16977 -0.7377969
-65.182999 117.22224 -0.82054287
-64.95295 117.03065 -0.79817843
-63.764297 117.231 -0.88004655
-53.766037 117.24223 -0.73878402
-39.643887 117.21747 -0.88847637
-38.388805 117.10935 -0.81914657
-36.86594 117.17278 -0.84724271
-28.093016 117.02168 -0.89747977
-22.642365 117.23483 -0.76229489
-19.300737 117.24235 -0.77974254
-18.923695 117.05841 -0.70916629
-13.123319 117.13696 -0.82434249
-10.423873 117.09141 -0.88406378
-9.8806438 117.20291 -0.79144788
-8.6930971 117.23151 -0.87541461
-4.094605 117.17393 -0.72349375
-3.6164215 117.28253 -0.77371007
-82.423325 117.3708 -0.88019395
-66.629601 117.36835 -0.70703661
-65.090813 117.53936 -0.87275404
-46.640549 117.57972 -0.79819721
-45.593506 117.55315 -0.88773209
-36.979713 117.41476 -0.66241997
-36.047153 117.3468 -0.74506998
-33.19907 117.53316 -0.75173634
-32.078846 117.53786 -0.87276369
-29.126446 117.50909 -0.84217954
-22.542147 117.45855 -0.78168958
-21.836418 117.52989 -0.76954085
-20.249542 117.48751 -0.85486215
-15.03231 117.59774 -0.78364295
-13.401909 117.54459 -0.82827842
-12.728197 117.35049 -0.89381373
-10.903591 117.50373 -0.83068705
-10.735572 117.36399 -0.89644694
-4.8538036 117.32151 -0.65689033
-3.6419327 117.37083 -0.77397013
-2.353385 117.42367 -0.82389623
-64.430183 117.66301 -0.87714809
-63.926575 117.62846 -0.88562328
-38.264015 117.61761 -0.85805559
-37.830223 117.83574 -0.86490953
-32.26067 117.67841 -0.89951742
-23.497606 117.78503 -0.82873261
-23.125465 117.6792 -0.85561073
-22.845678 117.78677 -0.87627095
-22.594465 117.74344 -0.85556817
-22.482822 117.70572 -0.86653584
-22.020319 117.82608 -0.82560402
-20.288946 117.72276 -0.67054391
-19.781534 117.64457 -0.86004585
-13.44649 117.63748 -0.76180094
-12.280252 117.83899 -0.84262079
-11.451359 117.67731 -0.88037843
-10.390883 117.66908 -0.88050395
-2.6734717 117.81516 -0.66679603
-2.3669598 117.65382 -0.75760835
-65.414551 118.17492 -0.66554576
-62.523869 118.18206 -0.89327806
-53.31385 118.05556 -0.88215458
-38.543789 118.11205 -0.83591658
-36.133751 117.96315 -0.85025531
-35.01017 118.03933 -0.75904453
-33.682594 118.08423 -0.82540298
-31.955345 118.04923 -0.89304906
-31.249008 117.96005 -0.78199524
-23.574331 118.03511 -0.84284925
-23.285097 117.97157 -0.80403209
-22.341742 117.97786 -0.79389328
-21.763968 118.07094 -0.71290809
-14.294195 117.93506 -0.74067855
-12.720157 118.04967 -0.87659127
-10.23024 117.95574 -0.87290382
-3.8613691 118.13999 -0.63727164
-3.0132701 118.0347 -0.7151379
-65.415512 118.20476 -0.66850114
-53.335602 118.20509 -0.86737418
-38.038406 118.20396 -0.79639667
-34.390667 118.45316 -0.88338721
-33.695946 118.41494 -0.80717129
-32.416245 118.47075 -0.87499797
-23.488998 118.4746 -0.82539773
-22.016514 118.32871 -0.80739021
-21.344303 118.4239 -0.8197974
-21.076828 118.29255 -0.70892256
-14.452649 118.45002 -0.80786169
-13.72539 118.25301 -0.76665872
-8.3527908 118.44821 -0.80289102
-5.9855242 118.43209 -0.77796233
-4.630794 118.44486 -0.75828719
-4.472764 118.31964 -0.71099174
-36.816502 118.50604 -0.77404857
-33.741493 118.53 -0.78517401
-27.614635 118.69023 -0.84183937
-18.518063 118.75067 -0.83738768
-12.267106 118.7529 -0.82852191
-10.554342 118.60555 -0.89700961
-6.8714981 118.68082 -0.77848673
-83.279266 119.07375 -0.83866203
-62.987209 118.83125 -0.88476986
-51.587933 118.9494 -0.775132
-33.195377 118.96947 -0.87874031
-30.527859 118.99046 -0.89846754
-22.537148 118.97501 -0.84804904
-21.752714 119.05746 -0.86388874
-19.363708 118.855 -0.72693586
-18.689297 118.9165 -0.64140743
-12.990603 118.83284 -0.76798499
-11.92762 118.89577 -0.88136411
-10.934721 118.95099 -0.8817541
-9.5177794 118.90154 -0.88061166
-83.298203 119.11558 -0.88898665
-53.929985 119.27155 -0.87170893
-33.7505 119.24682 -0.70585829
-21.171032 119.24376 -0.8055765
-19.961792 119.25967 -0.85496974
-19.43795 119.2948 -0.82676303
-5.5404801 119.2922 -0.83741605
-5.1400738 119.21069 -0.69836408
-50.597084 119.53882 -0.87454426
-15.272806 119.42527 -0.80877328
-14.312516 119.68857 -0.79260439
-10.6866 119.42964 -0.87014341
-6.7153754 119.40266 -0.83663517
-4.8313518 119.67073 -0.60870558
-2.5836105 119.61226 -0.801956
-63.420761 119.75153 -0.85684401
-63.014256 119.90545 -0.66544819
-38.18956 119.79057 -0.79408658
-21.540628 119.98113 -0.82639319
-20.507824 119.99337 -0.74060243
-15.648815 119.70988 -0.63515621
-15.087105 119.94736 -0.78454208
-14.318852 119.76855 -0.8412832
-13.765586 119.90312 -0.82367015
-12.64621 119.76493 -0.89678562
-6.3167534 119.74666 -0.67639732
-5.8863668 119.71292 -0.74667913
-4.769639 119.85105 -0.73905474
-4.4861498 119.70705 -0.63239884
-0.64500791 119.80677 -0.62344539
-98.21962 120.05241 -0.7774393
-61.92506 120.20493 -0.80277443
-30.332394 120.08018 -0.87842995
-28.852663 120.27431 -0.81129903
-22.751572 120.11157 -0.8725813
-20.531952 120.08934 -0.7634182
-17.864609 120.23376 -0.75586325
-15.216034 120.08234 -0.80791259
-12.725154 120.15613 -0.70633304
-5.8246026 120.2442 -0.8644377
-4.9519277 120.15875 -0.66725677
-4.7059884 120.18539 -0.87251252
-2.9398255 120.22218 -0.68853855
-31.854881 120.37031 -0.87118673
-21.182291 120.34698 -0.79374367
-13.964157 120.55037 -0.65334916
-13.043406 120.30895 -0.87910563
-12.407851 120.31422 -0.81852096
-6.3100724 120.41362 -0.75445569
-6.0968513 120.40571 -0.85532647
-5.2210579 120.35318 -0.87586403
-3.2171197 120.50507 -0.85600984
-2.7202487 120.41792 -0.78575629
-72.891487 120.85386 -0.77097535
-64.833321 120.61074 -0.8070997
-23.133434 120.69993 -0.63825595
-21.368483 120.70667 -0.80410188
-20.892294 120.87051 -0.84940022
-16.060175 120.85486 -0.82401556
-7.3275414 120.74677 -0.85203326
-6.3122497 120.85116 -0.8442781
-6.1723537 120.79301 -0.80955893
-33.030708 121.05735 -0.88211828
-21.536427 120.96698 -0.81637758
-21.02416 120.96515 -0.8461284
-20.920889 120.93124 -0.80346733
-20.611982 120.9726 -0.84281409
-11.180485 121.02248 -0.8577863
-8.0654058 121.01505 -0.89470947
-6.7486191 121.10803 -0.81012619
-5.9116673 121.0873 -0.86988431
-5.0807638 121.09693 -0.80630195
-4.2846975 121.04018 -0.80545497
-2.4049356 121.10312 -0.78508282
-69.058975 121.46283 -0.74716336
-68.70871 121.26559 -0.86951667
-23.330551 121.41837 -0.87050349
-21.89535 121.40309 -0.75362784
-21.353683 121.4796 -0.87736541
-14.045506 121.47749 -0.89245558
-7.4434519 121.25941 -0.88670772
-5.840981 121.30437 -0.81431502
-5.4978704 121.46214 -0.87241077
-5.0689192 121.27594 -0.76805496
-4.0986528 121.30665 -0.89782637
-3.8321686 121.33838 -0.82279384
-3.3756771 121.24918 -0.87936437
-68.393494 121.57504 -0.88743562
-35.213356 121.78672 -0.85116768
-34.697803 121.57494 -0.87356013
-21.54566 121.61779 -0.87558049
-19.790934 121.69817 -0.88370061
-7.5258036 121.5526 -0.87718481
-6.4452381 121.68948 -0.76679152
-5.5178909 121.52344 -0.78081048
-4.3809414 121.73839 -0.89458185
-69.558167 121.88731 -0.77180725
-16.582985 121.87315 -0.83624381
-16.47694 121.85424 -0.89560628
-7.4061441 121.90281 -0.79028904
-6.2329793 122.04474 -0.86794341
-5.8189559 122.02653 -0.81709105
-66.763451 122.17953 -0.80501479
-66.151176 122.11934 -0.74796045
-34.233189 122.3121 -0.87040287
-34.046844 122.32993 -0.88008678
-31.990599 122.15794 -0.82378751
-29.919001 122.24827 -0.77394873
-21.08823 122.23738 -0.72719663
-20.823494 122.24922 -0.77119821
-6.1857581 122.18761 -0.89520711
-2.5118995 122.25077 -0.78282529
-66.190414 122.55143 -0.86987501
-49.195244 122.47261 -0.79747951
-33.994896 122.56219 -0.85963029
-16.474613 122.51032 -0.86631697
-14.29665 122.64422 -0.87471008
-6.6660681 122.66904 -0.76302856
-6.3822603 122.62747 -0.82795757
-5.8174267 122.57375 -0.75111485
-3.5844383 122.48557 -0.85820132
-35.397316 122.80613 -0.761172
-21.434254 122.81712 -0.73120487
-6.4968061 122.91466 -0.78073144
-5.117785 122.76317 -0.70251435
-23.927948 123.00795 -0.82194579
-21.629829 123.07746 -0.82547152
-20.277439 123.2219 -0.84086883
-7.343163 123.20068 -0.89786792
-65.644539 123.48103 -0.87736696
-49.269127 123.47523 -0.84744805
-22.907305 123.58537 -0.80969334
-4.278841 123.36029 -0.8273111
-4.019681 123.42364 -0.84739023
-3.686482 123.57996 -0.78579736
-24.23913 123.63429 -0.86253971
-22.032219 123.88121 -0.8023054
-21.439728 123.77025 -0.80470181
-21.245375 123.87115 -0.88301295
-6.1061287 123.84566 -0.83350223
-4.6204715 123.8604 -0.84803355
-4.2680407 123.72051 -0.86238229
-3.6765356 123.62976 -0.88327003
-39.240814 124.0006 -0.78777605
-35.368225 124.19164 -0.86416614
-22.712555 124.1683 -0.67349714
-5.3020034 124.10921 -0.83727825
-3.2531497 124.00608 -0.86691368
-36.057396 124.25154 -0.78477013
-35.612095 124.37897 -0.88902456
-32.734173 124.32226 -0.82731825
-21.672253 124.29767 -0.70141572
-55.963718 124.58746 -0.84068924
-51.166416 124.50759 -0.85647559
-7.1262298 124.66855 -0.77913767
-6.734323 125.01472 -0.89535844
-19.002037 125.31683 -0.88725579
-4.4620337 125.39878 -0.89832217
-14.537936 125.52438 -0.83498132
-34.321915 125.98985 -0.8891629
-19.770145 125.98431 -0.80790025
-17.654219 125.92124 -0.86138189
-5.0500469 125.78318 -0.81148952
-4.073267 125.98151 -0.72200477
-53.722462 126.16762 -0.73132682
-21.426971 126.2289 -0.633838
-17.691675 126.03455 -0.78361869
-16.490534 126.08155 -0.88157225
-22.631454 126.39497 -0.86466825
-8.4851961 126.31535 -0.73022062
-6.7969241 126.35976 -0.75102901
-5.7179861 126.44594 -0.81313187
-18.478096 126.66286 -0.86217433
-15.508331 126.89606 -0.81436229
-4.804616 126.7233 -0.89887041
-24.467676 127.05042 -0.73935711
-5.6067309 127.02879 -0.8156808
-22.306023 127.23812 -0.78422534
-18.447079 127.30139 -0.85619783
-18.040043 127.22748 -0.87592524
-5.1833215 127.23623 -0.67241192
-24.403725 127.65016 -0.74069422
-22.984577 127.86951 -0.69243646
-22.795912 127.9678 -0.72676426
-19.899771 128.09683 -0.86253673
-5.8463154 127.80701 -0.72753149
-19.121735 128.13788 -0.86419642
-8.2270994 128.12511 -0.79810649
-20.101671 128.62531 -0.80171388
-6.3642321 128.44315 -0.81332332
-67.875397 129.29192 -0.86489964
-6.8857589 129.11063 -0.80871999
-67.853592 129.31978 -0.85200155
-7.5249505 129.48436 -0.8146646
-5.4407463 129.49109 -0.87179756
-5.3100085 129.3269 -0.75956798
-4.8455968 129.69865 -0.74908596
-21.274616 130.70917 -0.79703867
-7.2363024 130.85835 -0.82008833
-2.4068217 131.26808 -0.89727813
-2.3630369 131.8488 -0.79946291
-16.677404 132.89743 -0.87516969
-18.271486 132.92523 -0.67714053
-21.524632 134.54028 -0.80062544
-0.81295943 2.6898055 -0.46309835
-0.86001205 2.7261524 -0.48075825
-0.7489624 3.304842 -0.37153345
-0.18954161 3.922102 -0.43830201
-0.7702769 4.3310552 -0.45455918
-0.67892379 5.5502496 -0.45881772
-0.37110251 5.8766603 -0.42590296
-0.81156492 6.1984816 -0.42865175
-1.2935156 6.3418651 -0.44635433
-1.1425369 6.4499354 -0.42320922
-0.68269342 6.4937043 -0.35167629
-1.838946 7.3296766 -0.44837669
-1.3295467 7.4050875 -0.36655313
-1.6959968 7.6923742 -0.46446782
-1.0801811 13.668701 -0.48249203
-2.018153 15.513937 -0.49621779
-1.1428154 15.541296 -0.47398442
-1.4565852 15.834847 -0.49217552
-1.7118787 16.116861 -0.42933264
-0.97837412 16.219212 -0.46292415
-2.7425988 18.291546 -0.41601175
-2.5268836 18.265768 -0.45946303
-2.2598314 18.187164 -0.46208221
-0.39582947 18.715109 -0.44998297
-0.95049685 20.732683 -0.30994689
-90.338387 43.923599 -0.34645575
-73.811607 46.146034 -0.30541
-66.43261 46.371449 -0.36665329
-91.519371 46.7826 -0.42745373
-80.666374 46.502419 -0.30007994
-79.81852 46.700653 -0.34953359
-67.542137 46.54179 -0.33202505
-66.517967 46.609467 -0.41303265
-81.089218 47.03437 -0.47848326
-80.84227 47.099003 -0.41074291
-68.622894 47.002579 -0.36388788
-68.271164 46.883602 -0.48163906
-67.896889 47.018288 -0.46145627
-67.583755 46.852249 -0.41999364
-67.256332 46.86908 -0.30993804
-67.011497 46.972202 -0.44292617
-66.821358 46.992535 -0.48060146
-65.820534 46.807606 -0.46414208
-65.679131 46.857697 -0.32237566
-34.934387 47.020943 -0.45308366
-81.375458 47.279346 -0.31317088
-81.144409 47.230606 -0.35618606
-80.939804 47.208881 -0.39362153
-79.692314 47.202007 -0.50472188
-79.487801 47.147522 -0.39181268
-68.437317 47.238262 -0.45191234
-68.354721 47.225086 -0.42987975
-67.837883 47.210392 -0.52514392
-67.660339 47.264423 -0.44049355
-67.266022 47.289093 -0.41514155
-67.001862 47.13435 -0.41687888
-66.842308 47.351429 -0.49479374
-66.331268 47.209766 -0.4092907
-66.014381 47.375271 -0.56380373
-65.554054 47.300045 -0.30405843
-35.978188 47.290222 -0.39542392
-35.17778 47.207581 -0.43373853
-34.686287 47.372257 -0.389292
-68.668175 47.670033 -0.42099193
-68.353355 47.667957 -0.53805041
-68.040222 47.444107 -0.53088295
-67.250435 47.486958 -0.44183788
-66.969582 47.423332 -0.41833246
-64.445282 47.641964 -0.31757885
-63.289967 47.663643 -0.3082186
-35.071712 47.411797 -0.37146533
-18.100956 47.544788 -0.4024455
-82.00016 47.76894 -0.37887159
-69.426338 47.947083 -0.40103978
-68.416092 47.724403 -0.36946219
-67.960556 47.982075 -0.45162153
-67.432358 47.736687 -0.41023594
-67.029808 47.772617 -0.48404136
-66.85788 47.785797 -0.34549159
-66.043175 47.730209 -0.40196893
-65.393204 47.763855 -0.30719936
-65.027596 47.838688 -0.32059732
-64.647064 47.780567 -0.31918395
-64.047997 47.73402 -0.31979284
-63.602142 47.946037 -0.31823292
-25.033745 47.801132 -0.44831058
-18.317049 47.784336 -0.42175534
-18.031788 47.865116 -0.42091846
-72.099777 48.12944 -0.48771238
-71.727554 48.116776 -0.37418717
-69.241501 48.056595 -0.42594641
-67.811172 48.269283 -0.35411045
-67.79464 48.231953 -0.34293735
-67.240051 48.272438 -0.52474999
-66.72966 48.147873 -0.41694367
-66.24881 48.236164 -0.56874079
-65.857414 48.033287 -0.31992629
-63.305847 48.264435 -0.32576862
-25.006634 48.268791 -0.42709631
-20.689585 48.189892 -0.3848007
-18.079224 48.056957 -0.43312502
-17.899759 48.145649 -0.40066588
-72.280983 48.38203 -0.47499999
-71.712509 48.555344 -0.46222055
-70.36412 48.333706 -0.43564644
-69.92421 48.570728 -0.35092619
-69.735863 48.466091 -0.39107794
-68.637337 48.456783 -0.48611698
-68.015549 48.351585 -0.52309436
-67.093788 48.589973 -0.46864527
-66.865723 48.470982 -0.47175995
-66.367447 48.557751 -0.47111699
-66.110023 48.525661 -0.33769956
-65.987144 48.345642 -0.51771355
-65.634415 48.530182 -0.35131335
-64.492859 48.300079 -0.33226034
-63.345093 48.441814 -0.31868151
-35.062271 48.428734 -0.32011682
-24.144922 48.375038 -0.45382619
-20.469357 48.598579 -0.41549578
-91.136856 48.800507 -0.54305428
-78.437042 48.720322 -0.56122822
-77.303932 48.626812 -0.5787366
-73.36264 48.781456 -0.41337308
-73.096725 48.759708 -0.42396373
-71.719337 48.654354 -0.47639248
-71.565125 48.754349 -0.48679528
-71.305061 48.841991 -0.39725098
-69.956581 48.656094 -0.32476839
-69.661179 48.695526 -0.33549967
-69.52092 48.630062 -0.40475181
-69.122787 48.780449 -0.50086981
-68.850151 48.891697 -0.50507772
-68.544968 48.689735 -0.44947609
-66.925568 48.616516 -0.54475307
-66.892067 48.671597 -0.54418141
-66.467552 48.768005 -0.44305372
-66.006889 48.841892 -0.4511596
-65.919495 48.61805 -0.3817009
-65.649323 48.623081 -0.4021835
-65.390457 48.624485 -0.41499001
-64.896187 48.794468 -0.45147493
-64.06842 48.882153 -0.41300315
-63.769291 48.747948 -0.3444308
-63.384926 48.680904 -0.3661519
-20.175117 48.870068 -0.35451725
-19.753407 48.757236 -0.40343657
-19.102472 48.627018 -0.41516581
8.1737003 48.688431 -0.44563371
-83.554131 49.100651 -0.49589938
-73.45536 48.972645 -0.41784
-73.097763 49.124184 -0.48748374
-71.211884 49.088989 -0.3853572
-70.410034 49.014408 -0.49488145
-69.700249 49.059574 -0.46761027
-69.227196 49.0163 -0.50773472
-68.85775 49.083008 -0.52738065
-68.578362 49.076603 -0.47126952
-68.370926 49.146206 -0.39471453
-67.229553 49.091656 -0.34158626
-67.01519 49.061836 -0.45153868
-66.733711 49.073627 -0.47890711
-66.082352 48.992966 -0.34253436
-65.880333 49.087982 -0.50001097
-65.612289 48.98793 -0.34575599
-65.320412 48.901241 -0.51120067
-64.698387 49.038105 -0.45510298
-63.745831 49.165562 -0.38149583
-25.176069 49.015732 -0.47136444
-23.559242 49.170593 -0.45589465
-23.180779 49.167458 -0.41253459
-22.449474 49.115543 -0.35623556
-21.829678 48.925037 -0.33964419
-20.158152 49.034828 -0.46164221
-17.765259 48.977978 -0.37092972
-84.977798 49.480312 -0.31626016
-74.452156 49.406422 -0.30291879
-73.933693 49.467892 -0.40175524
-73.582458 49.253441 -0.34414101
-72.703262 49.442665 -0.42050308
-72.339897 49.346603 -0.46832338
-71.060379 49.286003 -0.52833843
-70.403328 49.304493 -0.52636439
-70.083412 49.267223 -0.51742464
-69.627472 49.422619 -0.51655221
-69.471809 49.368645 -0.53105724
-68.696793 49.401291 -0.47452176
-68.236649 49.235004 -0.46913597
-68.025902 49.201614 -0.30145949
-66.284599 49.417656 -0.55739331
-65.880836 49.380051 -0.50254697
-65.200928 49.294952 -0.42271191
-64.872696 49.300209 -0.50617206
-64.657166 49.356361 -0.30985013
-63.791843 49.35059 -0.37375352
-58.203716 49.368183 -0.32508355
-24.987499 49.492897 -0.42512879
-22.993568 49.359459 -0.48102745
-22.471647 49.365372 -0.46042109
-73.823769 49.632015 -0.35269558
-73.703163 49.580364 -0.39439338
-73.254608 49.775589 -0.47902343
-72.672729 49.511402 -0.46808925
-72.392555 49.558014 -0.54114532
-69.481316 49.634594 -0.45318159
-68.907974 49.785358 -0.48768073
-68.616531 49.535652 -0.50015104
-67.91581 49.673 -0.50028968
-67.621986 49.57901 -0.54178959
-67.261292 49.541161 -0.54276192
-66.490204 49.637207 -0.46315029
-66.093727 49.627502 -0.40388149
-65.813164 49.558685 -0.40406737
-65.048508 49.670959 -0.48812717
-64.742134 49.649101 -0.37906975
-64.356544 49.749283 -0.39955622
-64.043373 49.64386 -0.43942371
-63.484283 49.536968 -0.4918046
-62.798687 49.788361 -0.42486769
-19.844742 49.672394 -0.51648194
-19.666775 49.742943 -0.53862113
-19.190094 49.779716 -0.41146499
-17.932308 49.503819 -0.35322618
-83.402534 50.010342 -0.30074254
-73.104927 49.863712 -0.47265229
-72.716209 49.864552 -0.43350723
-72.094589 49.996452 -0.45403659
-71.76545 49.940495 -0.42922631
-69.941818 50.06982 -0.45457488
-69.610001 49.989529 -0.48242441
-69.548286 50.082844 -0.50280941
-68.443954 50.015873 -0.32060158
-68.328026 50.032063 -0.47750044
-67.539818 49.905949 -0.37711239
-66.647675 49.835789 -0.49129903
-65.30114 49.866882 -0.32783893
-64.960304 50.019096 -0.4060533
-64.682495 49.9118 -0.42826986
-64.227661 50.072037 -0.420057
-63.61726 50.058224 -0.41166764
-63.089931 49.921116 -0.38592532
-23.702669 50.072971 -0.44452402
-23.69191 49.973507 -0.39829537
-23.140902 49.994305 -0.44482034
-22.864437 49.814884 -0.48768562
-19.949039 49.959435 -0.53386903
-2.0335422 50.066536 -0.56161028
-91.643997 50.260994 -0.37701118
-83.410027 50.1222 -0.31547672
-76.290451 50.262505 -0.52747738
-74.65239 50.374386 -0.4808954
-73.917831 50.387787 -0.37438211
-73.606956 50.207947 -0.38216233
-73.478935 50.362568 -0.57316679
-72.36657 50.184643 -0.50428468
-72.160217 50.290352 -0.44338614
-71.238403 50.339012 -0.49717921
-71.005409 50.28508 -0.42751485
-70.399513 50.325268 -0.48484582
-69.443954 50.216034 -0.48429126
-66.203316 50.263515 -0.49330851
-65.828629 50.238914 -0.47583008
-65.621361 50.328136 -0.50339586
-64.910271 50.322411 -0.35610676
-63.242535 50.369537 -0.48706669
-39.197201 50.187649 -0.34333831
-24.625437 50.272667 -0.41878867
-23.824045 50.182858 -0.4234314
-23.50771 50.358948 -0.44124502
-23.259312 50.294991 -0.42435843
-22.034573 50.271271 -0.46597737
-21.785011 50.303009 -0.48487937
-20.242878 50.112263 -0.47658804
-19.849699 50.197094 -0.5595926
-18.886749 50.161766 -0.38702336
-90.702332 50.588169 -0.54675812
-83.406876 50.687271 -0.36880058
-83.394356 50.699223 -0.37743005
-74.571716 50.539497 -0.41568208
-73.238167 50.612644 -0.42440841
-73.166512 50.534122 -0.44948563
-71.555069 50.516808 -0.47571692
-71.134338 50.606853 -0.50439537
-70.962273 50.550335 -0.5040217
-70.690033 50.4832 -0.52118665
-69.996361 50.564514 -0.54094809
-69.665123 50.565334 -0.43130922
-69.436684 50.678497 -0.48437309
-68.845627 50.49691 -0.46453887
-66.830368 50.617874 -0.47633156
-66.392036 50.450806 -0.51991141
-66.110847 50.573292 -0.48541448
-65.864784 50.599106 -0.43965477
-65.608566 50.544312 -0.43991172
-64.884888 50.558239 -0.46652117
-62.437531 50.596153 -0.34172329
-62.29147 50.6087 -0.30261427
-23.555107 50.55278 -0.44894117
-23.303879 50.581909 -0.43051463
-20.711279 50.528591 -0.43559572
-20.208315 50.460518 -0.50304198
-92.800095 50.981728 -0.41200176
-92.339874 50.989235 -0.40683153
-92.036743 50.969204 -0.37041065
-77.238861 50.949432 -0.53808397
-74.898628 50.762188 -0.4574149
-74.640381 50.952103 -0.51994115
-74.093964 50.810753 -0.43461668
-73.394989 50.788067 -0.43550199
-72.773666 50.785313 -0.33281025
-71.478775 50.979214 -0.47245228
-70.717575 50.79673 -0.45875725
-69.996246 50.952408 -0.47865814
-69.746559 50.952209 -0.46488589
-69.443077 50.717411 -0.491056
-69.000107 50.868595 -0.4569993
-68.984886 50.840813 -0.45165101
-67.9151 50.976517 -0.35757595
-66.954185 50.904293 -0.44221932
-66.798332 50.913185 -0.45751649
-66.446579 50.967003 -0.31657019
-65.973785 50.948868 -0.47561991
-65.64949 50.828091 -0.53296912
-65.003632 50.911816 -0.49988693
-24.110384 50.890381 -0.33683494
-23.476595 50.850124 -0.4474141
-23.300957 50.848026 -0.44321862
-22.896523 50.749359 -0.48365229
-21.862516 50.828613 -0.46080574
-21.520264 50.7668 -0.38314188
-20.789326 50.831806 -0.39769337
-20.64616 50.803165 -0.49057367
-20.346096 50.830128 -0.54496771
-92.796638 51.124069 -0.35041401
-92.451172 51.124481 -0.50134748
-74.581871 51.094666 -0.3689633
-72.724693 51.10429 -0.55817723
-70.940994 51.127884 -0.50674713
-70.598068 51.038071 -0.41650411
-69.956139 51.228634 -0.47154871
-69.772781 51.071045 -0.39108539
-69.354164 51.17453 -0.3076371
-69.182068 51.246117 -0.54419291
-68.150368 51.057579 -0.40576819
-68.042114 51.12516 -0.52619797
-67.28125 51.110065 -0.30517459
-67.057487 51.101353 -0.47725981
-66.827332 51.000935 -0.37611249
-66.371315 51.053318 -0.47710195
-65.270943 51.136539 -0.35902169
-64.697258 51.180676 -0.36831963
-64.186462 51.259537 -0.51810855
-63.289585 51.257843 -0.34039629
-41.821701 51.193382 -0.34944993
-38.675617 51.151199 -0.36612329
-25.21059 51.253521 -0.38750404
-24.053131 51.051487 -0.385263
-22.543095 51.275555 -0.48269153
-22.447241 51.222992 -0.47435403
-20.322199 51.047272 -0.38056228
-6.5991855 51.192078 -0.46284166
-1.6365004 51.200119 -0.5858838
-92.202164 51.445557 -0.43854412
-80.177345 51.381687 -0.4843092
-79.770065 51.368984 -0.5411129
-78.978188 51.398735 -0.35905477
-74.737259 51.404419 -0.53302044
-73.955231 51.495598 -0.42207971
-72.945778 51.513847 -0.58867025
-72.837357 51.455601 -0.59562421
-72.48658 51.438778 -0.44388202
-72.213791 51.414532 -0.48899597
-70.314842 51.420006 -0.50897223
-70.044624 51.551971 -0.41289988
-69.526215 51.396824 -0.5016374
-67.386658 51.326859 -0.34334278
-66.145958 51.376423 -0.50278068
-65.248207 51.480083 -0.41403154
-64.694954 51.436081 -0.48414788
-64.25148 51.394787 -0.4290736
-63.591702 51.380131 -0.4882538
-25.373711 51.360947 -0.44810185
-24.760397 51.53915 -0.39175862
-22.327559 51.380981 -0.46920258
-21.509689 51.354294 -0.48700503
-21.137241 51.556217 -0.48417938
-8.3145208 51.426128 -0.49068555
-3.7217293 51.364799 -0.58873373
-3.1199989 51.473427 -0.53220767
-91.895226 51.792187 -0.50322843
-82.555214 51.61871 -0.30157775
-82.426476 51.669533 -0.41533875
-75.147644 51.840771 -0.51539272
-74.212852 51.658386 -0.55778456
-73.261124 51.689728 -0.46782228
-71.742584 51.650753 -0.45983639
-70.354805 51.807961 -0.43363005
-70.088806 51.771511 -0.50666332
-68.997902 51.710728 -0.41016659
-68.647522 51.71825 -0.54425573
-68.165199 51.642742 -0.41497961
-68.06971 51.650917 -0.37538019
-66.738609 51.786003 -0.3710548
-66.395332 51.621208 -0.33254874
-66.091156 51.662785 -0.36644429
-33.344097 51.823212 -0.3738507
-25.505497 51.891449 -0.41250414
-24.776234 51.892765 -0.37857819
-23.872465 51.61116 -0.4008534
-22.78536 51.678059 -0.4670268
-22.342245 51.699265 -0.46254864
-21.479277 51.792095 -0.44192338
-21.169521 51.76371 -0.49901953
-19.732948 51.860016 -0.45923245
-91.242004 52.151054 -0.53847396
-75.456062 51.930462 -0.33473796
-75.193344 51.924355 -0.47981891
-74.890076 52.027977 -0.44417739
-74.573082 52.035351 -0.49466822
-74.301926 51.977028 -0.34798253
-73.936905 52.082367 -0.45268694
-73.432518 52.043159 -0.44994289
-73.033257 52.150429 -0.34564167
-71.491631 51.91692 -0.39835289
-70.973099 52.153931 -0.35485321
-70.298523 52.124138 -0.46592391
-70.134598 52.070042 -0.58192223
-69.137466 51.995888 -0.40755424
-67.262299 52.100914 -0.37632942
-66.443253 51.996655 -0.52771902
-65.833557 51.976311 -0.42284983
-65.197876 52.097099 -0.35133445
-64.638176 52.121346 -0.49179834
-64.226959 52.070671 -0.5067547
-33.517448 52.181072 -0.3547959
-26.025082 51.978226 -0.4657732
-21.196095 51.985748 -0.49809742
-20.358219 51.977837 -0.5258584
-19.797897 52.002598 -0.54765517
-91.902016 52.483025 -0.56381762
-81.601547 52.29493 -0.3146801
-77.18959 52.31263 -0.45907137
-75.709755 52.447422 -0.30855963
-75.220345 52.342896 -0.46628579
-74.84156 52.294365 -0.42546648
-73.928062 52.457474 -0.44358864
-72.966652 52.32119 -0.43288204
-71.112572 52.467583 -0.46804389
-71.028694 52.477615 -0.48951524
-70.42791 52.329418 -0.42106134
-70.02037 52.429943 -0.56668055
-69.289726 52.332695 -0.58654594
-67.063675 52.35043 -0.43096796
-66.47258 52.341137 -0.46432415
-65.282181 52.306084 -0.37561378
-65.078186 52.418575 -0.50921524
-64.623398 52.281105 -0.50250059
-64.039757 52.347591 -0.43095589
-63.724556 52.427551 -0.53572619
-63.575573 52.409847 -0.51397055
-33.551926 52.287785 -0.30719894
-21.261866 52.228111 -0.46424434
-20.067055 52.442184 -0.4562965
-18.792336 52.411217 -0.45771942
-91.716553 52.639328 -0.50201297
-75.742409 52.532085 -0.354927
-75.351181 52.576111 -0.32330117
-75.135094 52.65469 -0.50456363
-74.978523 52.7248 -0.4657999
-73.816368 52.777279 -0.52134728
-73.709473 52.599358 -0.42603847
-71.200958 52.79562 -0.35920185
-70.906502 52.657089 -0.43985978
-70.630371 52.720848 -0.52311921
-70.125381 52.655998 -0.4288421
-66.158852 52.686687 -0.38498428
-65.249718 52.661465 -0.33197954
-64.935638 52.663731 -0.35710967
-63.664501 52.515896 -0.5333513
-63.534302 52.772377 -0.48025721
-21.071529 52.561661 -0.45607606
-20.371902 52.611835 -0.50679225
-20.019527 52.660686 -0.52684599
-19.744911 52.74012 -0.5649904
-8.1861706 52.618443 -0.47860962
-91.591286 52.828606 -0.48762727
-91.455269 52.854557 -0.52460605
-72.914986 53.034157 -0.42724547
-71.193855 52.891548 -0.3103798
-70.995773 52.989956 -0.50814337
-70.281738 52.947121 -0.53171909
-69.960388 52.856056 -0.5595938
-68.951576 53.003677 -0.51288748
-67.293549 53.080982 -0.39834389
-66.111481 53.045948 -0.4665145
-65.917351 52.94722 -0.50627756
-65.345894 52.894871 -0.49091142
-64.076019 52.927341 -0.41226897
-25.096773 52.863464 -0.45040104
-20.426115 53.04406 -0.48981571
-19.851452 53.034698 -0.54892737
-19.712906 52.970928 -0.56889141
-4.0237184 52.912666 -0.49727297
-91.650406 53.30793 -0.43235326
-76.843872 53.103336 -0.4151324
-76.745216 53.116688 -0.40567392
-75.752037 53.112602 -0.33536625
-74.518654 53.346786 -0.43330556
-74.322411 53.29438 -0.43434215
-74.041237 53.395184 -0.36408901
-73.667236 53.206753 -0.54921913
-73.345268 53.20052 -0.55508
-72.548775 53.28241 -0.53028846
-72.13868 53.315563 -0.38739756
-68.641624 53.343685 -0.42449045
-67.28833 53.280708 -0.38685015
-66.646881 53.356384 -0.39072695
-65.508026 53.332256 -0.34920445
-24.833181 53.106709 -0.38066092
-20.540491 53.20435 -0.50996774
-19.679138 53.22752 -0.54071617
-91.54689 53.557526 -0.48466641
-82.792023 53.487167 -0.3126767
-72.710381 53.691872 -0.4208222
-72.38945 53.670139 -0.45912591
-72.294769 53.674072 -0.56571585
-71.622551 53.632305 -0.5522154
-71.285324 53.563766 -0.41330537
-70.946129 53.586475 -0.46168062
-70.769112 53.590206 -0.44880939
-70.128975 53.583855 -0.53792655
-69.57383 53.454994 -0.47056791
-67.77433 53.574726 -0.31657031
-66.843529 53.634914 -0.47201017
-66.477951 53.549828 -0.43006453
-66.096161 53.497215 -0.43356276
-65.885399 53.615803 -0.41732875
-65.562096 53.575344 -0.44620839
-64.940903 53.574203 -0.50298113
-18.030039 53.492237 -0.43987769
-92.49221 53.819473 -0.51902944
-77.656693 53.796768 -0.45116249
-75.351181 53.720814 -0.539958
-74.608444 53.745232 -0.44606972
-73.86834 53.717758 -0.37324363
-73.26841 53.908459 -0.41399059
-73.068352 53.954098 -0.55853087
-72.405281 53.848785 -0.48249054
-72.19754 53.845123 -0.40259239
-71.892159 53.800232 -0.51567519
-70.700607 53.766193 -0.51083642
-70.315872 53.701122 -0.44436863
-70.050278 53.752762 -0.46333694
-66.794952 53.798023 -0.38295034
-65.591347 53.891651 -0.46891037
-65.2183 53.841812 -0.45451561
-65.076736 53.904507 -0.38876414
-64.617706 53.859703 -0.3902944
-64.277771 53.864506 -0.37475634
-3.6965182 53.842449 -0.56979072
-83.130707 54.05687 -0.31928766
-75.452408 54.12944 -0.4895162
-74.778923 54.218006 -0.32119104
-74.274193 54.279289 -0.57091647
-73.202248 54.012215 -0.46549389
-73.139076 54.028625 -0.51687086
-72.667465 54.07225 -0.45486021
-72.197739 54.177235 -0.43459684
-71.921539 54.20961 -0.49533877
-71.020706 54.264553 -0.44222444
-70.798111 54.179161 -0.50630313
-69.685707 54.109493 -0.44540283
-69.357689 54.169384 -0.44208196
-69.178299 54.20504 -0.49732789
-66.26207 54.279392 -0.32283732
-65.896454 54.072533 -0.35588378
-65.585136 54.178089 -0.39357999
-65.082809 54.103931 -0.39667493
-64.330948 54.022758 -0.46545568
-64.020439 54.168461 -0.48748708
-63.749485 54.0952 -0.47698146
-93.265717 54.539177 -0.39922059
-75.27951 54.553165 -0.34708363
-74.512421 54.525791 -0.33579722
-74.069641 54.423355 -0.51469398
-73.541573 54.397343 -0.55295682
-73.336754 54.51194 -0.39592394
-72.078064 54.426094 -0.56977582
-71.822113 54.52594 -0.51868248
-69.783104 54.506763 -0.48115554
-69.527153 54.58371 -0.46228489
-67.650635 54.533371 -0.42036018
-65.966988 54.582283 -0.38083237
-64.613815 54.322262 -0.30494347
-64.457115 54.36116 -0.40194672
-21.80607 54.418148 -0.30764854
-9.7987576 54.520218 -0.58426982
-7.1104975 54.51207 -0.55591673
-6.7359395 54.554752 -0.53825003
-93.246567 54.611172 -0.33732867
-92.058731 54.773891 -0.54603142
-83.167953 54.723232 -0.31042075
-81.548668 54.838718 -0.32064787
-76.096771 54.845955 -0.53043342
-75.79335 54.721268 -0.53219897
-75.309021 54.767918 -0.35316813
-75.278259 54.639145 -0.43046781
-74.515297 54.690159 -0.31516796
-73.286919 54.78318 -0.37264094
-73.174767 54.848454 -0.51492113
-72.690483 54.829971 -0.51764792
-72.553688 54.877987 -0.57452136
-71.591576 54.711563 -0.44502261
-71.255295 54.822021 -0.52546346
-71.031876 54.66127 -0.58877444
-70.70533 54.772568 -0.55505675
-70.358887 54.601425 -0.46674672
-70.026779 54.633087 -0.51977658
-69.581436 54.704475 -0.56891328
-68.744568 54.771187 -0.52236331
-68.578415 54.64537 -0.56982338
-67.668373 54.624794 -0.44004321
-66.717186 54.835472 -0.42394692
-64.669708 54.724094 -0.3709318
-63.940529 54.886261 -0.40302104
-63.840565 54.894341 -0.32276571
-62.592937 54.843998 -0.30611372
-60.772541 54.787106 -0.35188651
-60.537708 54.73769 -0.32770678
-57.974972 54.728165 -0.36383501
-19.270102 54.821602 -0.42195153
-5.5641675 54.724182 -0.4848443
-91.86145 55.022415 -0.49770147
-84.55571 55.012615 -0.40058288
-83.807182 54.955044 -0.34062624
-75.303169 55.178173 -0.34282517
-75.241562 54.936581 -0.4848448
-74.512604 55.088314 -0.41299081
-74.318848 55.119568 -0.5183481
-73.668808 54.933388 -0.50289154
-72.433266 55.016888 -0.41644084
-71.527573 55.19677 -0.52859247
-71.219948 55.010448 -0.48126999
-70.653015 55.080833 -0.50570405
-70.480782 54.964886 -0.51679051
-69.99942 54.994076 -0.44804263
-69.865738 55.009304 -0.5635559
-69.168404 54.954288 -0.47011191
-67.312904 55.096531 -0.41970557
-65.937904 55.122581 -0.39153972
-63.949471 55.027149 -0.46310338
-63.391296 55.124012 -0.48383361
-59.939018 55.013283 -0.34894139
-59.244148 55.075218 -0.33963633
-58.979942 54.986332 -0.36534727
-58.006783 55.100815 -0.39991277
-57.812317 55.17038 -0.33245826
-57.566788 55.060738 -0.31465524
-5.8865819 55.035759 -0.56937468
-92.405327 55.288254 -0.51038831
-84.274673 55.294342 -0.45511314
-83.821106 55.297707 -0.45201597
-76.263878 55.482136 -0.33693418
-76.124702 55.200558 -0.38686872
-74.378883 55.466713 -0.49683633
-72.438087 55.41404 -0.57886511
-72.143326 55.260746 -0.48824462
-71.459915 55.20163 -0.49789459
-71.390381 55.223995 -0.41219485
-71.073532 55.333332 -0.53085029
-70.686783 55.458496 -0.37734216
-68.939522 55.417904 -0.42792413
-66.130638 55.472256 -0.38740027
-65.865578 55.268566 -0.40332288
-64.992172 55.281216 -0.32768252
-63.07465 55.434784 -0.43480051
-62.528088 55.332203 -0.48321551
-62.327301 55.489468 -0.39550245
-61.367107 55.433445 -0.45896456
-60.433319 55.240189 -0.48427436
-60.156528 55.229027 -0.43097562
-59.066467 55.455795 -0.36536071
-58.531612 55.370838 -0.40191498
-58.31974 55.460888 -0.35212713
-58.119984 55.448544 -0.30426851
-22.059059 55.365555 -0.36089635
-92.713661 55.631996 -0.57260764
-83.320847 55.616039 -0.40188473
-76.282448 55.697132 -0.31928894
-75.806526 55.563885 -0.43660158
-75.096298 55.746277 -0.39665747
-74.860748 55.622849 -0.40603104
-73.494957 55.518452 -0.39451849
-71.666588 55.514809 -0.59195292
-70.988609 55.682621 -0.54559499
-70.763268 55.653996 -0.34033003
-69.319405 55.560932 -0.53880787
-69.154823 55.557903 -0.54747951
-68.519249 55.652744 -0.49085581
-67.683037 55.624161 -0.32411999
-66.856537 55.60445 -0.40163103
-65.268158 55.6856 -0.37805617
-64.517181 55.752235 -0.32538646
-64.257141 55.558723 -0.43957096
-64.094688 55.588978 -0.4313899
-63.890423 55.775257 -0.32873055
-63.042931 55.785435 -0.31717288
-61.873367 55.686142 -0.43756592
-61.798309 55.719379 -0.35455191
-61.421352 55.778488 -0.42351627
-61.104267 55.601944 -0.33553424
-60.804367 55.664829 -0.45134518
-60.39209 55.79285 -0.38487586
-60.264812 55.537319 -0.35565862
-59.454002 55.617859 -0.51438934
-59.374229 55.639427 -0.45591727
-58.6436 55.621845 -0.38047186
-57.993134 55.581013 -0.33527997
-57.810123 55.78537 -0.39893246
-57.494823 55.711834 -0.34875518
-22.274382 55.778599 -0.47136191
-22.030977 55.565983 -0.48409784
-20.63056 55.773655 -0.42900744
-5.2294755 55.545769 -0.59978306
-92.531967 55.935104 -0.5344941
-76.334702 55.915016 -0.45253468
-75.178787 56.019806 -0.41660184
-74.751213 56.074471 -0.48135495
-74.641251 56.083988 -0.49872544
-74.390396 56.049221 -0.41717225
-72.958687 55.837502 -0.53690416
-72.765015 55.86739 -0.47003445
-72.498505 56.032146 -0.32545912
-71.841278 55.977985 -0.53082252
-71.57666 55.987316 -0.43680087
-71.144196 56.04549 -0.53266835
-69.958931 55.859177 -0.39997843
-66.290329 55.834282 -0.37459517
-65.47229 55.943413 -0.32429188
-64.448586 56.071075 -0.4197391
-63.705845 55.958469 -0.44776249
-63.4146 55.868382 -0.445292
-63.183426 55.857037 -0.39793235
-62.118408 56.016373 -0.47409564
-61.567677 55.936203 -0.35541442
-61.393753 55.889683 -0.44010523
-60.930466 56.044991 -0.45025295
-60.768284 55.827866 -0.42623904
-60.351269 55.800205 -0.39165491
