# .PCD v0.7 - Point Cloud Data file format
VERSION 0.7
FIELDS x y z
SIZE 4 4 4
TYPE F F F
COUNT 1 1 1
WIDTH 114
HEIGHT 1
VIEWPOINT 0 0 0 1 0 0 0
POINTS 114
DATA ascii
-125.42973 -40.47538 -1.7590224
-125.42973 -30.47538 -1.6666799
-115.42973 -40.47538 -1.398609
-115.42973 -30.47538 -1.3852334
-105.42973 -40.47538 -1.2571918
-105.42973 -30.47538 -1.3033209
-105.42973 -20.47538 -1.3394442
-105.42973 -10.47538 -1.2399968
-95.429733 -40.47538 -0.81966162
-95.429733 -30.47538 -1.0427555
-95.429733 -20.47538 -1.3761508
-95.429733 -10.47538 -0.88006997
-95.429733 -0.47537994 -0.85276693
-85.429733 -70.47538 -0.57369947
-85.429733 -60.47538 -0.67588806
-85.429733 -50.47538 -0.60424113
-85.429733 -40.47538 -0.65711212
-85.429733 -30.47538 -0.75240993
-85.429733 -20.47538 -1.1343616
-85.429733 -10.47538 -0.65537423
-85.429733 -0.47537994 -0.93594366
-75.429733 -70.47538 -0.57852596
-75.429733 -60.47538 -0.58925629
-75.429733 -50.47538 -0.59527326
-75.429733 -40.47538 -0.57739079
-75.429733 -30.47538 -0.57676864
-75.429733 -20.47538 -1.0905062
-75.429733 -10.47538 -1.2266722
-75.429733 -0.47537994 -0.76902777
-65.429733 -70.47538 -0.70010376
-65.429733 -60.47538 -0.71633083
-65.429733 -50.47538 -0.69135737
-65.429733 -40.47538 -0.65467042
-65.429733 -30.47538 -0.63669503
-65.429733 -20.47538 -0.80215847
-65.429733 -10.47538 -1.3928902
-55.429733 -70.47538 -1.1489402
-55.429733 -60.47538 -0.75158775
-55.429733 -50.47538 -0.67076796
-55.429733 -40.47538 -0.79757345
-55.429733 -30.47538 -0.74816442
-55.429733 -20.47538 -0.98605746
-45.429733 -60.47538 -0.69163752
-45.429733 -50.47538 -0.79807448
-45.429733 -40.47538 -0.85181361
-45.429733 -30.47538 -0.85428011
-45.429733 -20.47538 -0.96521455
-35.429733 -60.47538 -0.74869424
-35.429733 -50.47538 -0.77690136
-35.429733 -40.47538 -0.83948392
-35.429733 -30.47538 -0.99108148
-35.429733 -20.47538 -1.1095154
-35.429733 -10.47538 -1.2454681
-35.429733 -0.47537994 -1.2424744
-25.429733 -60.47538 -1.0234216
-25.429733 -50.47538 -1.0532539
-25.429733 -40.47538 -1.0105319
-25.429733 -30.47538 -1.0672147
-25.429733 -20.47538 -1.0659645
-25.429733 -10.47538 -1.0372669
-25.429733 -0.47537994 -1.208595
-15.429733 -60.47538 -1.1429365
-15.429733 -50.47538 -1.2118368
-15.429733 -40.47538 -1.1125288
-15.429733 -30.47538 -1.0146675
-15.429733 -20.47538 -1.2203555
-15.429733 -10.47538 -1.2057959
-15.429733 -0.47537994 -1.0550884
-5.4297333 -60.47538 -1.3109527
-5.4297333 -50.47538 -1.2968708
-5.4297333 -40.47538 -1.2621046
-5.4297333 -30.47538 -1.2557691
-5.4297333 -20.47538 -1.3449049
-5.4297333 -10.47538 -1.6694809
-5.4297333 -0.47537994 -1.2210208
4.5702667 -60.47538 -1.7727969
4.5702667 -50.47538 -1.5293083
4.5702667 -40.47538 -1.5766983
4.5702667 -30.47538 -1.6326251
4.5702667 -20.47538 -1.8019291
4.5702667 -10.47538 -1.9911107
4.5702667 -0.47537994 -1.8598617
14.570267 -60.47538 -1.8412695
14.570267 -50.47538 -1.6293162
14.570267 -40.47538 -1.6168195
14.570267 -30.47538 -1.5953197
14.570267 -20.47538 -1.6078184
14.570267 -10.47538 -1.6399974
14.570267 -0.47537994 -1.7221776
24.570267 -50.47538 -2.0440812
24.570267 -40.47538 -1.9697806
24.570267 -30.47538 -1.9025598
24.570267 -20.47538 -1.8956871
24.570267 -10.47538 -2.0064402
24.570267 -0.47537994 -2.0409811
34.570267 -50.47538 -1.5593851
34.570267 -40.47538 -1.7001598
34.570267 -30.47538 -1.7735316
34.570267 -20.47538 -1.687474
34.570267 -10.47538 -2.0004122
34.570267 -0.47537994 -1.8419771
44.570267 -50.47538 -1.757571
44.570267 -40.47538 -1.9849097
44.570267 -30.47538 -2.1288412
44.570267 -20.47538 -1.7754557
44.570267 -10.47538 -1.9634954
44.570267 -0.47537994 -2.2625525
54.570267 -40.47538 -2.1550927
54.570267 -30.47538 -2.4607623
54.570267 -20.47538 -1.8764009
54.570267 -10.47538 -2.3799906
54.570267 -0.47537994 -2.0096755
64.570267 -40.47538 -2.5256884
64.570267 -30.47538 -2.6886222
