# .PCD v0.7 - Point Cloud Data file format
VERSION 0.7
FIELDS x y z
SIZE 4 4 4
TYPE F F F
COUNT 1 1 1
WIDTH 1528
HEIGHT 1
VIEWPOINT 0 0 0 1 0 0 0
POINTS 1528
DATA ascii
20.070269 -44.97538 -1.8309338
20.070269 -44.47538 -1.8286257
20.070269 -43.97538 -1.8263168
20.070269 -43.47538 -1.8240074
20.070269 -42.97538 -1.8216971
20.070269 -42.47538 -1.8193862
20.070269 -41.97538 -1.8170748
20.070269 -41.47538 -1.8147626
20.070269 -40.97538 -1.8124497
20.070269 -40.47538 -1.8101361
20.070269 -39.97538 -1.8078219
20.070269 -39.47538 -1.8055069
20.070269 -38.97538 -1.8031913
20.070269 -38.47538 -1.8008751
20.070269 -37.97538 -1.7985581
20.070269 -37.47538 -1.7962404
20.070269 -36.97538 -1.7939222
20.070269 -36.47538 -1.7916032
20.070269 -35.97538 -1.7892835
20.070269 -35.47538 -1.7869632
20.070269 -34.97538 -1.7847028
20.070269 -34.47538 -1.7825627
20.070269 -33.97538 -1.7805432
20.070269 -33.47538 -1.7786442
20.070269 -32.97538 -1.7768656
20.070269 -32.47538 -1.7752074
20.070269 -31.975378 -1.7736697
20.070269 -31.47538 -1.7722524
20.070269 -30.97538 -1.7709557
20.070269 -30.47538 -1.7697793
20.070269 -29.97538 -1.7687235
20.070269 -29.475378 -1.7677881
20.070269 -28.97538 -1.7669731
20.070269 -28.47538 -1.7662786
20.070269 -27.97538 -1.7657046
20.070269 -27.47538 -1.765251
20.070269 -26.975378 -1.7649179
20.070269 -26.47538 -1.7647053
20.070269 -25.97538 -1.764613
20.070269 -25.47538 -1.7646413
20.070269 -24.975378 -1.764822
20.070269 -24.47538 -1.7651871
20.070269 -23.97538 -1.7657368
20.070269 -23.475376 -1.7664708
20.070269 -22.97538 -1.7673893
20.070269 -22.475378 -1.7684922
20.070269 -21.97538 -1.7697797
20.070269 -21.47538 -1.7712516
20.070269 -20.975376 -1.7729079
20.070269 -20.47538 -1.7747486
20.070269 -19.975378 -1.7767738
20.070269 -19.47538 -1.7789834
20.070269 -18.97538 -1.7813776
20.070269 -18.475376 -1.7839561
20.070269 -17.97538 -1.7867191
20.070269 -17.475378 -1.7896665
20.070269 -16.97538 -1.7927984
20.070269 -16.47538 -1.7961147
20.070269 -15.975377 -1.7996155
20.070269 -15.47538 -1.8033007
20.070269 -14.962878 -1.8071233
20.070269 -14.425381 -1.8110359
20.070269 -13.862879 -1.8150387
20.070269 -13.275376 -1.8191315
20.070269 -12.66288 -1.8233144
20.070269 -12.025377 -1.8275876
20.070269 -11.362882 -1.8319507
20.070269 -10.675379 -1.8364041
20.070269 -9.9628754 -1.8409475
20.070269 -9.2253799 -1.8455809
20.070269 -8.4628773 -1.8503046
20.070269 -7.6753817 -1.8551183
20.070269 -6.8628783 -1.8600222
20.070269 -6.0253749 -1.8650162
20.070269 -5.1628799 -1.8701003
20.070269 -4.2753763 -1.8752744
20.070269 -3.3628817 -1.8805387
20.070269 -2.4253781 -1.8858931
20.070269 -1.4628744 -1.8913378
20.070269 -0.47537994 -1.8968723
20.570271 -70.47538 -1.8297002
20.570271 -69.487877 -1.8306696
20.570271 -68.525383 -1.8316777
20.570271 -67.587883 -1.8327243
20.570271 -66.675377 -1.8338099
20.570271 -65.78788 -1.834934
20.570271 -64.925377 -1.8360968
20.570271 -64.087883 -1.8372983
20.570271 -63.275379 -1.8385385
20.570271 -62.487881 -1.8398174
20.570271 -61.72538 -1.841135
20.570271 -60.987881 -1.8424913
20.570271 -60.275379 -1.8438863
20.570271 -59.587879 -1.84532
20.570271 -58.925381 -1.8467923
20.570271 -58.28788 -1.8483034
20.570271 -57.675381 -1.8498532
20.570271 -57.087879 -1.8514416
20.570271 -56.525379 -1.8530688
20.570271 -55.987881 -1.8547347
20.570271 -55.47538 -1.8564392
20.570271 -54.97538 -1.8580598
20.570271 -54.47538 -1.8594736
20.570271 -53.97538 -1.8606808
20.570271 -53.47538 -1.8616812
20.570271 -52.97538 -1.862475
20.570271 -52.47538 -1.8630623
20.570271 -51.97538 -1.8634427
20.570271 -51.47538 -1.8636165
20.570271 -50.97538 -1.8635836
20.570271 -50.47538 -1.863344
20.570271 -49.97538 -1.8628978
20.570271 -49.47538 -1.8622447
20.570271 -48.97538 -1.8613851
20.570271 -48.47538 -1.8603188
20.570271 -47.97538 -1.8590459
20.570271 -47.47538 -1.8575661
20.570271 -46.97538 -1.8558798
20.570271 -46.47538 -1.8539867
20.570271 -45.97538 -1.8518871
20.570271 -45.47538 -1.8495806
20.570271 -44.97538 -1.8471712
20.570271 -44.47538 -1.8447622
20.570271 -43.97538 -1.8423537
20.570271 -43.47538 -1.8399457
20.570271 -42.97538 -1.8375381
20.570271 -42.47538 -1.835131
20.570271 -41.97538 -1.8327245
20.570271 -41.47538 -1.8303183
20.570271 -40.97538 -1.8279127
20.570271 -40.47538 -1.8255075
20.570271 -39.97538 -1.823103
20.570271 -39.47538 -1.8206987
20.570271 -38.97538 -1.8182951
20.570271 -38.47538 -1.8158919
20.570271 -37.97538 -1.8134892
20.570271 -37.47538 -1.811087
20.570271 -36.97538 -1.8086852
20.570271 -36.47538 -1.806284
20.570271 -35.97538 -1.8038832
20.570271 -35.47538 -1.8014829
20.570271 -34.97538 -1.7991436
20.570271 -34.47538 -1.7969258
20.570271 -33.97538 -1.7948292
20.570271 -33.47538 -1.7928543
20.570271 -32.97538 -1.7910007
20.570271 -32.47538 -1.7892686
20.570271 -31.975378 -1.787658
20.570271 -31.47538 -1.7861688
20.570271 -30.97538 -1.784801
20.570271 -30.47538 -1.7835547
20.570271 -29.97538 -1.7824298
20.570271 -29.475378 -1.7814264
20.570271 -28.97538 -1.7805444
20.570271 -28.47538 -1.7797838
20.570271 -27.97538 -1.7791448
20.570271 -27.47538 -1.7786272
20.570271 -26.975378 -1.7782309
20.570271 -26.47538 -1.7779561
20.570271 -25.97538 -1.7778028
20.570271 -25.47538 -1.7777709
20.570271 -24.975378 -1.7778989
20.570271 -24.47538 -1.7782254
20.570271 -23.97538 -1.7787503
20.570271 -23.475376 -1.7794735
20.570271 -22.97538 -1.7803953
20.570271 -22.475378 -1.7815154
20.570271 -21.97538 -1.7828338
20.570271 -21.47538 -1.7843508
20.570271 -20.975376 -1.7860662
20.570271 -20.47538 -1.7879798
20.570271 -19.975378 -1.7900921
20.570271 -19.47538 -1.7924026
20.570271 -18.97538 -1.7949116
20.570271 -18.475376 -1.797619
20.570271 -17.97538 -1.8005248
20.570271 -17.475378 -1.803629
20.570271 -16.97538 -1.8069316
20.570271 -16.47538 -1.8104327
20.570271 -15.975377 -1.8141322
20.570271 -15.47538 -1.81803
20.570271 -14.962878 -1.8220594
20.570271 -14.425381 -1.8261532
20.570271 -13.862879 -1.8303115
20.570271 -13.275376 -1.8345344
20.570271 -12.66288 -1.8388216
20.570271 -12.025377 -1.8431735
20.570271 -11.362882 -1.8475897
20.570271 -10.675379 -1.8520706
20.570271 -9.9628754 -1.8566159
20.570271 -9.2253799 -1.8612256
20.570271 -8.4628773 -1.8658999
20.570271 -7.6753817 -1.8706386
20.570271 -6.8628783 -1.8754419
20.570271 -6.0253749 -1.8803097
20.570271 -5.1628799 -1.885242
20.570271 -4.2753763 -1.8902388
20.570271 -3.3628817 -1.8953
20.570271 -2.4253781 -1.9004258
20.570271 -1.4628744 -1.905616
20.570271 -0.47537994 -1.9108708
21.070272 -70.47538 -1.8353043
21.070272 -69.487877 -1.8357025
21.070272 -68.525383 -1.8362087
21.070272 -67.587883 -1.8368226
21.070272 -66.675377 -1.8375446
21.070272 -65.78788 -1.8383745
21.070272 -64.925377 -1.8393122
21.070272 -64.087883 -1.8403579
21.070272 -63.275379 -1.8415114
21.070272 -62.487881 -1.8427728
21.070272 -61.72538 -1.8441423
21.070272 -60.987881 -1.8456196
21.070272 -60.275379 -1.8472047
21.070272 -59.587879 -1.8488978
21.070272 -58.925381 -1.8506988
21.070272 -58.28788 -1.8526077
21.070272 -57.675381 -1.8546245
21.070272 -57.087879 -1.8567493
21.070272 -56.525379 -1.8589818
21.070272 -55.987881 -1.8613224
21.070272 -55.47538 -1.8637708
21.070272 -54.97538 -1.8661487
21.070272 -54.47538 -1.8682775
21.070272 -53.97538 -1.8701575
21.070272 -53.47538 -1.8717884
21.070272 -52.97538 -1.8731701
21.070272 -52.47538 -1.8743031
21.070272 -51.97538 -1.8751869
21.070272 -51.47538 -1.8758217
21.070272 -50.97538 -1.8762076
21.070272 -50.47538 -1.8763444
21.070272 -49.97538 -1.8762323
21.070272 -49.47538 -1.8758711
21.070272 -48.97538 -1.8752609
21.070272 -48.47538 -1.8744017
21.070272 -47.97538 -1.8732935
21.070272 -47.47538 -1.8719363
21.070272 -46.97538 -1.8703301
21.070272 -46.47538 -1.868475
21.070272 -45.97538 -1.8663707
21.070272 -45.47538 -1.8640175
21.070272 -44.97538 -1.8615403
21.070272 -44.47538 -1.8590642
21.070272 -43.97538 -1.8565892
21.070272 -43.47538 -1.8541152
21.070272 -42.97538 -1.8516424
21.070272 -42.47538 -1.8491706
21.070272 -41.97538 -1.8467
21.070272 -41.47538 -1.8442303
21.070272 -40.97538 -1.8417617
21.070272 -40.47538 -1.8392943
21.070272 -39.97538 -1.8368279
21.070272 -39.47538 -1.8343626
21.070272 -38.97538 -1.8318983
21.070272 -38.47538 -1.8294352
21.070272 -37.97538 -1.8269732
21.070272 -37.47538 -1.8245122
21.070272 -36.97538 -1.8220524
21.070272 -36.47538 -1.8195934
21.070272 -35.97538 -1.8171357
21.070272 -35.47538 -1.814679
21.070272 -34.97538 -1.8122834
21.070272 -34.47538 -1.8100086
21.070272 -33.97538 -1.8078548
21.070272 -33.47538 -1.8058218
21.070272 -32.97538 -1.8039097
21.070272 -32.47538 -1.8021184
21.070272 -31.975378 -1.8004481
21.070272 -31.47538 -1.7988987
21.070272 -30.97538 -1.7974701
21.070272 -30.47538 -1.7961625
21.070272 -29.97538 -1.7949758
21.070272 -29.475378 -1.7939099
21.070272 -28.97538 -1.7929649
21.070272 -28.47538 -1.7921408
21.070272 -27.97538 -1.7914376
21.070272 -27.47538 -1.7908553
21.070272 -26.975378 -1.7903939
21.070272 -26.47538 -1.7900534
21.070272 -25.97538 -1.7898338
21.070272 -25.47538 -1.7897351
21.070272 -24.975378 -1.7898035
21.070272 -24.47538 -1.7900856
21.070272 -23.97538 -1.7905811
21.070272 -23.475376 -1.7912902
21.070272 -22.97538 -1.7922127
21.070272 -22.475378 -1.7933488
21.070272 -21.97538 -1.7946984
21.070272 -21.47538 -1.7962614
21.070272 -20.975376 -1.7980381
21.070272 -20.47538 -1.8000283
21.070272 -19.975378 -1.802232
21.070272 -19.47538 -1.8046492
21.070272 -18.97538 -1.8072799
21.070272 -18.475376 -1.8101242
21.070272 -17.97538 -1.813182
21.070272 -17.475378 -1.8164532
21.070272 -16.97538 -1.8199381
21.070272 -16.47538 -1.8236364
21.070272 -15.975377 -1.8275483
21.070272 -15.47538 -1.8316736
21.070272 -14.962878 -1.8359239
21.070272 -14.425381 -1.8402106
21.070272 -13.862879 -1.8445334
21.070272 -13.275376 -1.8488926
21.070272 -12.66288 -1.8532881
21.070272 -12.025377 -1.8577198
21.070272 -11.362882 -1.8621877
21.070272 -10.675379 -1.8666921
21.070272 -9.9628754 -1.8712327
21.070272 -9.2253799 -1.8758097
21.070272 -8.4628773 -1.8804228
21.070272 -7.6753817 -1.8850722
21.070272 -6.8628783 -1.8897581
21.070272 -6.0253749 -1.8944801
21.070272 -5.1628799 -1.8992385
21.070272 -4.2753763 -1.9040332
21.070272 -3.3628817 -1.908864
21.070272 -2.4253781 -1.9137313
21.070272 -1.4628744 -1.9186349
21.070272 -0.47537994 -1.9235747
21.570265 -70.47538 -1.8403848
21.570265 -69.487877 -1.8402485
21.570265 -68.525383 -1.8402821
21.570265 -67.587883 -1.8404853
21.570265 -66.675377 -1.8408583
21.570265 -65.78788 -1.8414012
21.570265 -64.925377 -1.8421139
21.570265 -64.087883 -1.8429964
21.570265 -63.275379 -1.8440485
21.570265 -62.487881 -1.8452705
21.570265 -61.72538 -1.8466623
21.570265 -60.987881 -1.8482238
21.570265 -60.275379 -1.8499551
21.570265 -59.587879 -1.8518562
21.570265 -58.925381 -1.8539271
21.570265 -58.28788 -1.8561678
21.570265 -57.675381 -1.8585782
21.570265 -57.087879 -1.8611585
21.570265 -56.525379 -1.8639084
21.570265 -55.987881 -1.8668282
21.570265 -55.47538 -1.8699179
21.570265 -54.97538 -1.8729502
21.570265 -54.47538 -1.8756982
21.570265 -53.97538 -1.8781619
21.570265 -53.47538 -1.8803414
21.570265 -52.97538 -1.8822366
21.570265 -52.47538 -1.8838476
21.570265 -51.97538 -1.8851743
21.570265 -51.47538 -1.8862166
21.570265 -50.97538 -1.8869747
21.570265 -50.47538 -1.8874485
21.570265 -49.97538 -1.8876381
21.570265 -49.47538 -1.8875433
21.570265 -48.97538 -1.8871644
21.570265 -48.47538 -1.8865011
21.570265 -47.97538 -1.8855535
21.570265 -47.47538 -1.8843217
21.570265 -46.97538 -1.8828056
21.570265 -46.47538 -1.8810052
21.570265 -45.97538 -1.8789204
21.570265 -45.47538 -1.8765515
21.570265 -44.97538 -1.874041
21.570265 -44.47538 -1.8715315
21.570265 -43.97538 -1.8690232
21.570265 -43.47538 -1.866516
21.570265 -42.97538 -1.8640099
21.570265 -42.47538 -1.8615049
21.570265 -41.97538 -1.859001
21.570265 -41.47538 -1.8564982
21.570265 -40.97538 -1.8539966
21.570265 -40.47538 -1.851496
21.570265 -39.97538 -1.8489965
21.570265 -39.47538 -1.8464983
21.570265 -38.97538 -1.8440011
21.570265 -38.47538 -1.8415049
21.570265 -37.97538 -1.8390099
21.570265 -37.47538 -1.836516
21.570265 -36.97538 -1.8340231
21.570265 -36.47538 -1.8315315
21.570265 -35.97538 -1.8290409
21.570265 -35.47538 -1.8265514
21.570265 -34.97538 -1.824122
21.570265 -34.47538 -1.8218112
21.570265 -33.97538 -1.8196193
21.570265 -33.47538 -1.8175462
21.570265 -32.97538 -1.8155919
21.570265 -32.47538 -1.8137565
21.570265 -31.975378 -1.8120397
21.570265 -31.47538 -1.8104419
21.570265 -30.97538 -1.8089627
21.570265 -30.47538 -1.8076024
21.570265 -29.97538 -1.806361
21.570265 -29.475378 -1.8052382
21.570265 -28.97538 -1.8042344
21.570265 -28.47538 -1.8033493
21.570265 -27.97538 -1.802583
21.570265 -27.47538 -1.8019356
21.570265 -26.975378 -1.8014069
21.570265 -26.47538 -1.8009969
21.570265 -25.97538 -1.8007059
21.570265 -25.47538 -1.8005335
21.570265 -24.975378 -1.8005356
21.570265 -24.47538 -1.8007674
21.570265 -23.97538 -1.801229
21.570265 -23.475376 -1.8019203
21.570265 -22.97538 -1.8028414
21.570265 -22.475378 -1.8039923
21.570265 -21.97538 -1.805373
21.570265 -21.47538 -1.8069835
21.570265 -20.975376 -1.8088236
21.570265 -20.47538 -1.8108937
21.570265 -19.975378 -1.8131934
21.570265 -19.47538 -1.8157229
21.570265 -18.97538 -1.8184823
21.570265 -18.475376 -1.8214715
21.570265 -17.97538 -1.8246902
21.570265 -17.475378 -1.8281389
21.570265 -16.97538 -1.8318174
21.570265 -16.47538 -1.8357255
21.570265 -15.975377 -1.8398635
21.570265 -15.47538 -1.8442314
21.570265 -14.962878 -1.8487167
21.570265 -14.425381 -1.8532076
21.570265 -13.862879 -1.857704
21.570265 -13.275376 -1.862206
21.570265 -12.66288 -1.8667133
21.570265 -12.025377 -1.8712262
21.570265 -11.362882 -1.8757446
21.570265 -10.675379 -1.8802685
21.570265 -9.9628754 -1.8847978
21.570265 -9.2253799 -1.8893328
21.570265 -8.4628773 -1.8938731
21.570265 -7.6753817 -1.8984189
21.570265 -6.8628783 -1.9029703
21.570265 -6.0253749 -1.9075272
21.570265 -5.1628799 -1.9120896
21.570265 -4.2753763 -1.9166574
21.570265 -3.3628817 -1.9212308
21.570265 -2.4253781 -1.9258096
21.570265 -1.4628744 -1.9303941
21.570265 -0.47537994 -1.9349838
22.070267 -70.47538 -1.8449419
22.070267 -69.487877 -1.8443078
22.070267 -68.525383 -1.8438979
22.070267 -67.587883 -1.8437124
22.070267 -66.675377 -1.8437513
22.070267 -65.78788 -1.8440144
22.070267 -64.925377 -1.844502
22.070267 -64.087883 -1.8452138
22.070267 -63.275379 -1.8461498
22.070267 -62.487881 -1.8473103
22.070267 -61.72538 -1.848695
22.070267 -60.987881 -1.8503041
22.070267 -60.275379 -1.8521376
22.070267 -59.587879 -1.8541952
22.070267 -58.925381 -1.8564774
22.070267 -58.28788 -1.8589838
22.070267 -57.675381 -1.8617144
22.070267 -57.087879 -1.8646694
22.070267 -56.525379 -1.8678488
22.070267 -55.987881 -1.8712524
22.070267 -55.47538 -1.8748804
22.070267 -54.97538 -1.8784643
22.070267 -54.47538 -1.8817357
22.070267 -53.97538 -1.8846946
22.070267 -53.47538 -1.8873409
22.070267 -52.97538 -1.8896749
22.070267 -52.47538 -1.8916962
22.070267 -51.97538 -1.8934051
22.070267 -51.47538 -1.8948015
22.070267 -50.97538 -1.8958855
22.070267 -50.47538 -1.8966568
22.070267 -49.97538 -1.8971157
22.070267 -49.47538 -1.8972621
22.070267 -48.97538 -1.8970959
22.070267 -48.47538 -1.8966174
22.070267 -47.97538 -1.8958262
22.070267 -47.47538 -1.8947227
22.070267 -46.97538 -1.8933065
22.070267 -46.47538 -1.891578
22.070267 -45.97538 -1.8895369
22.070267 -45.47538 -1.8871832
22.070267 -44.97538 -1.8846736
22.070267 -44.47538 -1.8821646
22.070267 -43.97538 -1.8796562
22.070267 -43.47538 -1.8771484
22.070267 -42.97538 -1.8746411
22.070267 -42.47538 -1.8721343
22.070267 -41.97538 -1.8696282
22.070267 -41.47538 -1.8671227
22.070267 -40.97538 -1.8646177
22.070267 -40.47538 -1.8621132
22.070267 -39.97538 -1.8596094
22.070267 -39.47538 -1.8571061
22.070267 -38.97538 -1.8546034
22.070267 -38.47538 -1.8521013
22.070267 -37.97538 -1.8495997
22.070267 -37.47538 -1.8470987
22.070267 -36.97538 -1.8445983
22.070267 -36.47538 -1.8420985
22.070267 -35.97538 -1.8395991
22.070267 -35.47538 -1.8371005
22.070267 -34.97538 -1.8346597
22.070267 -34.47538 -1.832334
22.070267 -33.97538 -1.8301235
22.070267 -33.47538 -1.8280282
22.070267 -32.97538 -1.8260481
22.070267 -32.47538 -1.8241831
22.070267 -31.975378 -1.8224334
22.070267 -31.47538 -1.8207988
22.070267 -30.97538 -1.8192793
22.070267 -30.47538 -1.817875
22.070267 -29.97538 -1.8165859
22.070267 -29.475378 -1.815412
22.070267 -28.97538 -1.8143532
22.070267 -28.47538 -1.8134097
22.070267 -27.97538 -1.8125813
22.070267 -27.47538 -1.8118681
22.070267 -26.975378 -1.81127
22.070267 -26.47538 -1.8107871
22.070267 -25.97538 -1.8104194
22.070267 -25.47538 -1.8101668
22.070267 -24.975378 -1.8100955
22.070267 -24.47538 -1.8102713
22.070267 -23.97538 -1.8106943
22.070267 -23.475376 -1.8113645
22.070267 -22.97538 -1.8122818
22.070267 -22.475378 -1.8134464
22.070267 -21.97538 -1.8148581
22.070267 -21.47538 -1.816517
22.070267 -20.975376 -1.818423
22.070267 -20.47538 -1.8205763
22.070267 -19.975378 -1.8229767
22.070267 -19.47538 -1.8256243
22.070267 -18.97538 -1.8285191
22.070267 -18.475376 -1.8316611
22.070267 -17.97538 -1.8350502
22.070267 -17.475378 -1.8386865
22.070267 -16.97538 -1.8425699
22.070267 -16.47538 -1.8467007
22.070267 -15.975377 -1.8510785
22.070267 -15.47538 -1.8557036
22.070267 -14.962878 -1.8604382
22.070267 -14.425381 -1.865145
22.070267 -13.862879 -1.8698239
22.070267 -13.275376 -1.874475
22.070267 -12.66288 -1.8790981
22.070267 -12.025377 -1.8836933
22.070267 -11.362882 -1.8882607
22.070267 -10.675379 -1.8928002
22.070267 -9.9628754 -1.8973118
22.070267 -9.2253799 -1.9017954
22.070267 -8.4628773 -1.9062513
22.070267 -7.6753817 -1.9106792
22.070267 -6.8628783 -1.9150792
22.070267 -6.0253749 -1.9194514
22.070267 -5.1628799 -1.9237957
22.070267 -4.2753763 -1.928112
22.070267 -3.3628817 -1.9324006
22.070267 -2.4253781 -1.9366611
22.070267 -1.4628744 -1.9408939
22.070267 -0.47537994 -1.9450988
22.570269 -70.47538 -1.8489755
22.570269 -69.487877 -1.8478801
22.570269 -68.525383 -1.8470564
22.570269 -67.587883 -1.8465041
22.570269 -66.675377 -1.8462232
22.570269 -65.78788 -1.8462141
22.570269 -64.925377 -1.8464763
22.570269 -64.087883 -1.8470101
22.570269 -63.275379 -1.8478154
22.570269 -62.487881 -1.8488923
22.570269 -61.72538 -1.8502407
22.570269 -60.987881 -1.8518606
22.570269 -60.275379 -1.853752
22.570269 -59.587879 -1.855915
22.570269 -58.925381 -1.8583494
22.570269 -58.28788 -1.8610555
22.570269 -57.675381 -1.864033
22.570269 -57.087879 -1.8672822
22.570269 -56.525379 -1.8708026
22.570269 -55.987881 -1.8745948
22.570269 -55.47538 -1.8786584
22.570269 -54.97538 -1.882691
22.570269 -54.47538 -1.8863899
22.570269 -53.97538 -1.8897551
22.570269 -53.47538 -1.8927867
22.570269 -52.97538 -1.8954846
22.570269 -52.47538 -1.8978488
22.570269 -51.97538 -1.8998793
22.570269 -51.47538 -1.9015762
22.570269 -50.97538 -1.9029394
22.570269 -50.47538 -1.9039689
22.570269 -49.97538 -1.9046648
22.570269 -49.47538 -1.905027
22.570269 -48.97538 -1.9050555
22.570269 -48.47538 -1.9047503
22.570269 -47.97538 -1.9041115
22.570269 -47.47538 -1.903139
22.570269 -46.97538 -1.9018328
22.570269 -46.47538 -1.900193
22.570269 -45.97538 -1.8982195
22.570269 -45.47538 -1.8959123
22.570269 -44.97538 -1.8934381
22.570269 -44.47538 -1.8909632
22.570269 -43.97538 -1.8884879
22.570269 -43.47538 -1.8860121
22.570269 -42.97538 -1.8835356
22.570269 -42.47538 -1.8810587
22.570269 -41.97538 -1.8785813
22.570269 -41.47538 -1.8761033
22.570269 -40.97538 -1.8736247
22.570269 -40.47538 -1.8711457
22.570269 -39.97538 -1.8686661
22.570269 -39.47538 -1.866186
22.570269 -38.97538 -1.8637053
22.570269 -38.47538 -1.8612242
22.570269 -37.97538 -1.8587425
22.570269 -37.47538 -1.8562602
22.570269 -36.97538 -1.8537774
22.570269 -36.47538 -1.8512942
22.570269 -35.97538 -1.8488103
22.570269 -35.47538 -1.846326
22.570269 -34.97538 -1.8438964
22.570269 -34.47538 -1.8415767
22.570269 -33.97538 -1.8393672
22.570269 -33.47538 -1.8372675
22.570269 -32.97538 -1.8352779
22.570269 -32.47538 -1.8333983
22.570269 -31.975378 -1.8316287
22.570269 -31.47538 -1.8299692
22.570269 -30.97538 -1.8284196
22.570269 -30.47538 -1.82698
22.570269 -29.97538 -1.8256505
22.570269 -29.475378 -1.8244309
22.570269 -28.97538 -1.8233213
22.570269 -28.47538 -1.8223218
22.570269 -27.97538 -1.8214322
22.570269 -27.47538 -1.8206527
22.570269 -26.975378 -1.8199832
22.570269 -26.47538 -1.8194237
22.570269 -25.97538 -1.8189743
22.570269 -25.47538 -1.8186347
22.570269 -24.975378 -1.8184831
22.570269 -24.47538 -1.8185972
22.570269 -23.97538 -1.818977
22.570269 -23.475376 -1.8196225
22.570269 -22.97538 -1.8205338
22.570269 -22.475378 -1.8217108
22.570269 -21.97538 -1.8231535
22.570269 -21.47538 -1.824862
22.570269 -20.975376 -1.8268361
22.570269 -20.47538 -1.8290761
22.570269 -19.975378 -1.8315817
22.570269 -19.47538 -1.8343531
22.570269 -18.97538 -1.8373902
22.570269 -18.475376 -1.840693
22.570269 -17.97538 -1.8442615
22.570269 -17.475378 -1.8480958
22.570269 -16.97538 -1.8521957
22.570269 -16.47538 -1.8565614
22.570269 -15.975377 -1.8611929
22.570269 -15.47538 -1.8660901
22.570269 -14.962878 -1.8710883
22.570269 -14.425381 -1.8760225
22.570269 -13.862879 -1.8808929
22.570269 -13.275376 -1.8856994
22.570269 -12.66288 -1.890442
22.570269 -12.025377 -1.8951209
22.570269 -11.362882 -1.8997358
22.570269 -10.675379 -1.9042869
22.570269 -9.9628754 -1.9087741
22.570269 -9.2253799 -1.9131975
22.570269 -8.4628773 -1.917557
22.570269 -7.6753817 -1.9218527
22.570269 -6.8628783 -1.9260845
22.570269 -6.0253749 -1.9302524
22.570269 -5.1628799 -1.9343566
22.570269 -4.2753763 -1.9383968
22.570269 -3.3628817 -1.9423732
22.570269 -2.4253781 -1.9462856
22.570269 -1.4628744 -1.9501343
22.570269 -0.47537994 -1.9539191
23.070271 -70.47538 -1.8524857
23.070271 -69.487877 -1.8509657
23.070271 -68.525383 -1.8497572
23.070271 -67.587883 -1.84886
23.070271 -66.675377 -1.8482744
23.070271 -65.78788 -1.8479999
23.070271 -64.925377 -1.848037
23.070271 -64.087883 -1.8483855
23.070271 -63.275379 -1.8490453
23.070271 -62.487881 -1.8500165
23.070271 -61.72538 -1.851299
23.070271 -60.987881 -1.8528931
23.070271 -60.275379 -1.8547986
23.070271 -59.587879 -1.8570153
23.070271 -58.925381 -1.8595434
23.070271 -58.28788 -1.8623831
23.070271 -57.675381 -1.8655341
23.070271 -57.087879 -1.8689965
23.070271 -56.525379 -1.8727702
23.070271 -55.987881 -1.8768554
23.070271 -55.47538 -1.8812519
23.070271 -54.97538 -1.8856304
23.070271 -54.47538 -1.8896608
23.070271 -53.97538 -1.8933437
23.070271 -53.47538 -1.8966787
23.070271 -52.97538 -1.8996658
23.070271 -52.47538 -1.9023052
23.070271 -51.97538 -1.9045968
23.070271 -51.47538 -1.9065406
23.070271 -50.97538 -1.9081367
23.070271 -50.47538 -1.909385
23.070271 -49.97538 -1.9102855
23.070271 -49.47538 -1.9108381
23.070271 -48.97538 -1.9110429
23.070271 -48.47538 -1.9109
23.070271 -47.97538 -1.9104093
23.070271 -47.47538 -1.9095708
23.070271 -46.97538 -1.9083846
23.070271 -46.47538 -1.9068505
23.070271 -45.97538 -1.9049686
23.070271 -45.47538 -1.9027389
23.070271 -44.97538 -1.9003342
23.070271 -44.47538 -1.8979274
23.070271 -43.97538 -1.8955183
23.070271 -43.47538 -1.8931071
23.070271 -42.97538 -1.8906937
23.070271 -42.47538 -1.888278
23.070271 -41.97538 -1.8858601
23.070271 -41.47538 -1.88344
23.070271 -40.97538 -1.8810178
23.070271 -40.47538 -1.8785933
23.070271 -39.97538 -1.8761667
23.070271 -39.47538 -1.8737378
23.070271 -38.97538 -1.8713068
23.070271 -38.47538 -1.8688736
23.070271 -37.97538 -1.8664382
23.070271 -37.47538 -1.8640004
23.070271 -36.97538 -1.8615606
23.070271 -36.47538 -1.8591186
23.070271 -35.97538 -1.8566743
23.070271 -35.47538 -1.8542279
23.070271 -34.97538 -1.8518319
23.070271 -34.47538 -1.8495394
23.070271 -33.97538 -1.8473501
23.070271 -33.47538 -1.8452641
23.070271 -32.97538 -1.8432814
23.070271 -32.47538 -1.8414019
23.070271 -31.975378 -1.8396258
23.070271 -31.47538 -1.8379531
23.070271 -30.97538 -1.8363836
23.070271 -30.47538 -1.8349174
23.070271 -29.97538 -1.8335545
23.070271 -29.475378 -1.8322949
23.070271 -28.97538 -1.8311387
23.070271 -28.47538 -1.8300856
23.070271 -27.97538 -1.829136
23.070271 -27.47538 -1.8282896
23.070271 -26.975378 -1.8275466
23.070271 -26.47538 -1.8269068
23.070271 -25.97538 -1.8263702
23.070271 -25.47538 -1.8259372
23.070271 -24.975378 -1.8256983
23.070271 -24.47538 -1.8257449
23.070271 -23.97538 -1.8260769
23.070271 -23.475376 -1.8266944
23.070271 -22.97538 -1.8275973
23.070271 -22.475378 -1.8287855
23.070271 -21.97538 -1.8302592
23.070271 -21.47538 -1.8320184
23.070271 -20.975376 -1.8340629
23.070271 -20.47538 -1.8363929
23.070271 -19.975378 -1.8390083
23.070271 -19.47538 -1.8419092
23.070271 -18.97538 -1.8450954
23.070271 -18.475376 -1.8485671
23.070271 -17.97538 -1.8523241
23.070271 -17.475378 -1.8563666
23.070271 -16.97538 -1.8606945
23.070271 -16.47538 -1.8653079
23.070271 -15.975377 -1.8702067
23.070271 -15.47538 -1.8753909
23.070271 -14.962878 -1.8806666
23.070271 -14.425381 -1.8858398
23.070271 -13.862879 -1.8909107
23.070271 -13.275376 -1.8958791
23.070271 -12.66288 -1.9007452
23.070271 -12.025377 -1.9055088
23.070271 -11.362882 -1.91017
23.070271 -10.675379 -1.9147288
23.070271 -9.9628754 -1.919185
23.070271 -9.2253799 -1.9235389
23.070271 -8.4628773 -1.9277904
23.070271 -7.6753817 -1.9319395
23.070271 -6.8628783 -1.9359862
23.070271 -6.0253749 -1.9399304
23.070271 -5.1628799 -1.9437722
23.070271 -4.2753763 -1.9475116
23.070271 -3.3628817 -1.9511485
23.070271 -2.4253781 -1.9546831
23.070271 -1.4628744 -1.9581152
23.070271 -0.47537994 -1.9614449
23.570272 -70.47538 -1.8554723
23.570272 -69.487877 -1.8535644
23.570272 -68.525383 -1.8520005
23.570272 -67.587883 -1.8507805
23.570272 -66.675377 -1.8499044
23.570272 -65.78788 -1.8493723
23.570272 -64.925377 -1.849184
23.570272 -64.087883 -1.8493397
23.570272 -63.275379 -1.8498393
23.570272 -62.487881 -1.8506829
23.570272 -61.72538 -1.8518703
23.570272 -60.987881 -1.8534017
23.570272 -60.275379 -1.8552771
23.570272 -59.587879 -1.8574963
23.570272 -58.925381 -1.8600594
23.570272 -58.28788 -1.8629665
23.570272 -57.675381 -1.8662175
23.570272 -57.087879 -1.8698125
23.570272 -56.525379 -1.8737514
23.570272 -55.987881 -1.8780342
23.570272 -55.47538 -1.8826609
23.570272 -54.97538 -1.8872821
23.570272 -54.47538 -1.8915486
23.570272 -53.97538 -1.8954601
23.570272 -53.47538 -1.8990169
23.570272 -52.97538 -1.9022186
23.570272 -52.47538 -1.9050657
23.570272 -51.97538 -1.9075577
23.570272 -51.47538 -1.9096949
23.570272 -50.97538 -1.9114773
23.570272 -50.47538 -1.9129049
23.570272 -49.97538 -1.9139775
23.570272 -49.47538 -1.9146954
23.570272 -48.97538 -1.9150583
23.570272 -48.47538 -1.9150664
23.570272 -47.97538 -1.9147196
23.570272 -47.47538 -1.914018
23.570272 -46.97538 -1.9129615
23.570272 -46.47538 -1.9115502
23.570272 -45.97538 -1.909784
23.570272 -45.47538 -1.9076629
23.570272 -44.97538 -1.9053622
23.570272 -44.47538 -1.9030571
23.570272 -43.97538 -1.9007474
23.570272 -43.47538 -1.8984334
23.570272 -42.97538 -1.8961151
23.570272 -42.47538 -1.8937922
23.570272 -41.97538 -1.8914648
23.570272 -41.47538 -1.8891331
23.570272 -40.97538 -1.8867968
23.570272 -40.47538 -1.8844563
23.570272 -39.97538 -1.8821112
23.570272 -39.47538 -1.8797617
23.570272 -38.97538 -1.8774078
23.570272 -38.47538 -1.8750495
23.570272 -37.97538 -1.8726866
23.570272 -37.47538 -1.8703194
23.570272 -36.97538 -1.8679477
23.570272 -36.47538 -1.8655716
23.570272 -35.97538 -1.8631911
23.570272 -35.47538 -1.8608062
23.570272 -34.97538 -1.8584665
23.570272 -34.47538 -1.8562219
23.570272 -33.97538 -1.8540723
23.570272 -33.47538 -1.8520179
23.570272 -32.97538 -1.8500584
23.570272 -32.47538 -1.8481941
23.570272 -31.975378 -1.8464248
23.570272 -31.47538 -1.8447505
23.570272 -30.97538 -1.8431714
23.570272 -30.47538 -1.8416872
23.570272 -29.97538 -1.8402982
23.570272 -29.475378 -1.8390042
23.570272 -28.97538 -1.8378052
23.570272 -28.47538 -1.8367013
23.570272 -27.97538 -1.8356924
23.570272 -27.47538 -1.8347787
23.570272 -26.975378 -1.8339599
23.570272 -26.47538 -1.8332362
23.570272 -25.97538 -1.8326076
23.570272 -25.47538 -1.832074
23.570272 -24.975378 -1.8317411
23.570272 -24.47538 -1.8317145
23.570272 -23.97538 -1.8319942
23.570272 -23.475376 -1.8325801
23.570272 -22.97538 -1.8334721
23.570272 -22.475378 -1.8346707
23.570272 -21.97538 -1.8361753
23.570272 -21.47538 -1.8379862
23.570272 -20.975376 -1.8401034
23.570272 -20.47538 -1.8425269
23.570272 -19.975378 -1.8452567
23.570272 -19.47538 -1.8482926
23.570272 -18.97538 -1.8516349
23.570272 -18.475376 -1.8552834
23.570272 -17.97538 -1.8592381
23.570272 -17.475378 -1.8634993
23.570272 -16.97538 -1.8680665
23.570272 -16.47538 -1.8729401
23.570272 -15.975377 -1.8781199
23.570272 -15.47538 -1.8836061
23.570272 -14.962878 -1.8891735
23.570272 -14.425381 -1.8945973
23.570272 -13.862879 -1.8998777
23.570272 -13.275376 -1.9050144
23.570272 -12.66288 -1.9100076
23.570272 -12.025377 -1.9148571
23.570272 -11.362882 -1.9195632
23.570272 -10.675379 -1.9241256
23.570272 -9.9628754 -1.9285445
23.570272 -9.2253799 -1.9328197
23.570272 -8.4628773 -1.9369515
23.570272 -7.6753817 -1.9409395
23.570272 -6.8628783 -1.9447842
23.570272 -6.0253749 -1.9484853
23.570272 -5.1628799 -1.9520426
23.570272 -4.2753763 -1.9554565
23.570272 -3.3628817 -1.9587268
23.570272 -2.4253781 -1.9618535
23.570272 -1.4628744 -1.9648366
23.570272 -0.47537994 -1.9676762
24.070265 -70.47538 -1.8579354
24.070265 -69.487877 -1.8556763
24.070265 -68.525383 -1.8537862
24.070265 -67.587883 -1.8522654
24.070265 -66.675377 -1.8511136
24.070265 -65.78788 -1.8503308
24.070265 -64.925377 -1.8499173
24.070265 -64.087883 -1.8498728
24.070265 -63.275379 -1.8501976
24.070265 -62.487881 -1.8508914
24.070265 -61.72538 -1.8519542
24.070265 -60.987881 -1.8533863
24.070265 -60.275379 -1.8551875
24.070265 -59.587879 -1.8573579
24.070265 -58.925381 -1.8598973
24.070265 -58.28788 -1.8628058
24.070265 -57.675381 -1.8660835
24.070265 -57.087879 -1.8697302
24.070265 -56.525379 -1.8737462
24.070265 -55.987881 -1.8781312
24.070265 -55.47538 -1.8828853
24.070265 -54.97538 -1.8876467
24.070265 -54.47538 -1.892053
24.070265 -53.97538 -1.8961046
24.070265 -53.47538 -1.8998013
24.070265 -52.97538 -1.9031429
24.070265 -52.47538 -1.9061298
24.070265 -51.97538 -1.9087619
24.070265 -51.47538 -1.911039
24.070265 -50.97538 -1.9129612
24.070265 -50.47538 -1.9145287
24.070265 -49.97538 -1.9157412
24.070265 -49.47538 -1.9165988
24.070265 -48.97538 -1.9171016
24.070265 -48.47538 -1.9172494
24.070265 -47.97538 -1.9170425
24.070265 -47.47538 -1.9164805
24.070265 -46.97538 -1.9155638
24.070265 -46.47538 -1.9142922
24.070265 -45.97538 -1.9126657
24.070265 -45.47538 -1.9106843
24.070265 -44.97538 -1.9085219
24.070265 -44.47538 -1.9063522
24.070265 -43.97538 -1.9041753
24.070265 -43.47538 -1.9019911
24.070265 -42.97538 -1.8997997
24.070265 -42.47538 -1.8976011
24.070265 -41.97538 -1.8953953
24.070265 -41.47538 -1.8931822
24.070265 -40.97538 -1.8909619
24.070265 -40.47538 -1.8887343
24.070265 -39.97538 -1.8864995
24.070265 -39.47538 -1.8842576
24.070265 -38.97538 -1.8820082
24.070265 -38.47538 -1.8797518
24.070265 -37.97538 -1.877488
24.070265 -37.47538 -1.8752171
24.070265 -36.97538 -1.8729389
24.070265 -36.47538 -1.8706534
24.070265 -35.97538 -1.8683608
24.070265 -35.47538 -1.8660609
24.070265 -34.97538 -1.8637999
24.070265 -34.47538 -1.8616244
24.070265 -33.97538 -1.859534
24.070265 -33.47538 -1.8575289
24.070265 -32.97538 -1.8556092
24.070265 -32.47538 -1.8537747
24.070265 -31.975378 -1.8520254
24.070265 -31.47538 -1.8503615
24.070265 -30.97538 -1.8487828
24.070265 -30.47538 -1.8472893
24.070265 -29.97538 -1.8458812
24.070265 -29.475378 -1.8445584
24.070265 -28.97538 -1.8433208
24.070265 -28.47538 -1.8421685
24.070265 -27.97538 -1.8411015
24.070265 -27.47538 -1.8401197
24.070265 -26.975378 -1.8392233
24.070265 -26.47538 -1.838412
24.070265 -25.97538 -1.8376862
24.070265 -25.47538 -1.8370454
24.070265 -24.975378 -1.8366116
24.070265 -24.47538 -1.836506
24.070265 -23.97538 -1.8367286
24.070265 -23.475376 -1.8372794
24.070265 -22.97538 -1.8381586
24.070265 -22.475378 -1.839366
24.070265 -21.97538 -1.8409015
24.070265 -21.47538 -1.8427655
24.070265 -20.975376 -1.8449576
24.070265 -20.47538 -1.8474779
24.070265 -19.975378 -1.8503265
24.070265 -19.47538 -1.8535033
24.070265 -18.97538 -1.8570085
24.070265 -18.475376 -1.8608419
24.070265 -17.97538 -1.8650035
24.070265 -17.475378 -1.8694934
24.070265 -16.97538 -1.8743114
24.070265 -16.47538 -1.8794578
24.070265 -15.975377 -1.8849325
24.070265 -15.47538 -1.8907354
24.070265 -14.962878 -1.8966087
24.070265 -14.425381 -1.9022948
24.070265 -13.862879 -1.9077934
24.070265 -13.275376 -1.9131049
24.070265 -12.66288 -1.918229
24.070265 -12.025377 -1.9231657
24.070265 -11.362882 -1.9279152
24.070265 -10.675379 -1.9324774
24.070265 -9.9628754 -1.9368522
24.070265 -9.2253799 -1.9410397
24.070265 -8.4628773 -1.94504
24.070265 -7.6753817 -1.9488528
24.070265 -6.8628783 -1.9524784
24.070265 -6.0253749 -1.9559168
24.070265 -5.1628799 -1.9591677
24.070265 -4.2753763 -1.9622314
24.070265 -3.3628817 -1.9651077
24.070265 -2.4253781 -1.9677967
24.070265 -1.4628744 -1.9702985
24.070265 -0.47537994 -1.9726129
24.570267 -70.47538 -1.8598751
24.570267 -69.487877 -1.8573014
24.570267 -68.525383 -1.8551145
24.570267 -67.587883 -1.8533146
24.570267 -66.675377 -1.8519018
24.570267 -65.78788 -1.8508759
24.570267 -64.925377 -1.8502369
24.570267 -64.087883 -1.849985
24.570267 -63.275379 -1.8501201
24.570267 -62.487881 -1.8506421
24.570267 -61.72538 -1.8515511
24.570267 -60.987881 -1.8528471
24.570267 -60.275379 -1.8545301
24.570267 -59.587879 -1.8566
24.570267 -58.925381 -1.8590569
24.570267 -58.28788 -1.8619009
24.570267 -57.675381 -1.8651317
24.570267 -57.087879 -1.8687497
24.570267 -56.525379 -1.8727546
24.570267 -55.987881 -1.8771464
24.570267 -55.47538 -1.8819252
24.570267 -54.97538 -1.8867236
24.570267 -54.47538 -1.8911742
24.570267 -53.97538 -1.8952769
24.570267 -53.47538 -1.8990319
24.570267 -52.97538 -1.9024389
24.570267 -52.47538 -1.905498
24.570267 -51.97538 -1.9082094
24.570267 -51.47538 -1.9105729
24.570267 -50.97538 -1.9125886
24.570267 -50.47538 -1.9142565
24.570267 -49.97538 -1.9155763
24.570267 -49.47538 -1.9165485
24.570267 -48.97538 -1.9171728
24.570267 -48.47538 -1.9174492
24.570267 -47.97538 -1.9173778
24.570267 -47.47538 -1.9169586
24.570267 -46.97538 -1.9161915
24.570267 -46.47538 -1.9150766
24.570267 -45.97538 -1.9136138
24.570267 -45.47538 -1.9118032
24.570267 -44.97538 -1.9098134
24.570267 -44.47538 -1.907813
24.570267 -43.97538 -1.9058019
24.570267 -43.47538 -1.9037802
24.570267 -42.97538 -1.9017479
24.570267 -42.47538 -1.8997052
24.570267 -41.97538 -1.8976517
24.570267 -41.47538 -1.8955877
24.570267 -40.97538 -1.893513
24.570267 -40.47538 -1.8914278
24.570267 -39.97538 -1.8893318
24.570267 -39.47538 -1.8872254
24.570267 -38.97538 -1.8851084
24.570267 -38.47538 -1.8829807
24.570267 -37.97538 -1.8808424
24.570267 -37.47538 -1.8786936
24.570267 -36.97538 -1.8765341
24.570267 -36.47538 -1.874364
24.570267 -35.97538 -1.8721833
24.570267 -35.47538 -1.869992
24.570267 -34.97538 -1.8678324
24.570267 -34.47538 -1.8657467
24.570267 -33.97538 -1.8637351
24.570267 -33.47538 -1.8617973
24.570267 -32.97538 -1.8599336
24.570267 -32.47538 -1.8581438
24.570267 -31.975378 -1.8564279
24.570267 -31.47538 -1.8547859
24.570267 -30.97538 -1.853218
24.570267 -30.47538 -1.851724
24.570267 -29.97538 -1.850304
24.570267 -29.475378 -1.8489579
24.570267 -28.97538 -1.8476857
24.570267 -28.47538 -1.8464875
24.570267 -27.97538 -1.8453634
24.570267 -27.47538 -1.844313
24.570267 -26.975378 -1.8433367
24.570267 -26.47538 -1.8424344
24.570267 -25.97538 -1.841606
24.570267 -25.47538 -1.8408515
24.570267 -24.975378 -1.8403097
24.570267 -24.47538 -1.8401194
24.570267 -23.97538 -1.8402804
24.570267 -23.475376 -1.8407928
24.570267 -22.97538 -1.8416566
24.570267 -22.475378 -1.8428717
24.570267 -21.97538 -1.8444382
24.570267 -21.47538 -1.8463562
24.570267 -20.975376 -1.8486254
24.570267 -20.47538 -1.8512461
24.570267 -19.975378 -1.8542181
24.570267 -19.47538 -1.8575416
24.570267 -18.97538 -1.8612164
24.570267 -18.475376 -1.8652427
24.570267 -17.97538 -1.8696203
24.570267 -17.475378 -1.8743494
24.570267 -16.97538 -1.8794297
24.570267 -16.47538 -1.8848615
24.570267 -15.975377 -1.8906446
24.570267 -15.47538 -1.8967791
24.570267 -14.962878 -1.9029726
24.570267 -14.425381 -1.9089322
24.570267 -13.862879 -1.9146584
24.570267 -13.275376 -1.9201509
24.570267 -12.66288 -1.9254097
24.570267 -12.025377 -1.9304349
24.570267 -11.362882 -1.9352264
24.570267 -10.675379 -1.9397843
24.570267 -9.9628754 -1.9441086
24.570267 -9.2253799 -1.9481993
24.570267 -8.4628773 -1.9520562
24.570267 -7.6753817 -1.9556795
24.570267 -6.8628783 -1.9590693
24.570267 -6.0253749 -1.9622253
24.570267 -5.1628799 -1.9651477
24.570267 -4.2753763 -1.9678365
24.570267 -3.3628817 -1.9702916
24.570267 -2.4253781 -1.9725131
24.570267 -1.4628744 -1.9745009
24.570267 -0.47537994 -1.9762552
25.070269 -70.47538 -1.8612913
25.070269 -69.487877 -1.8584394
25.070269 -68.525383 -1.8559852
25.070269 -67.587883 -1.8539283
25.070269 -66.675377 -1.8522689
25.070269 -65.78788 -1.8510071
25.070269 -64.925377 -1.8501428
25.070269 -64.087883 -1.849676
25.070269 -63.275379 -1.8496068
25.070269 -62.487881 -1.8499349
25.070269 -61.72538 -1.8506607
25.070269 -60.987881 -1.8517839
25.070269 -60.275379 -1.8533046
25.070269 -59.587879 -1.8552228
25.070269 -58.925381 -1.8575386
25.070269 -58.28788 -1.8602518
25.070269 -57.675381 -1.8633626
25.070269 -57.087879 -1.8668708
25.070269 -56.525379 -1.8707765
25.070269 -55.987881 -1.8750799
25.070269 -55.47538 -1.8797807
25.070269 -54.97538 -1.8845133
25.070269 -54.47538 -1.8889122
25.070269 -53.97538 -1.8929774
25.070269 -53.47538 -1.8967087
25.070269 -52.97538 -1.9001063
25.070269 -52.47538 -1.9031701
25.070269 -51.97538 -1.9059002
25.070269 -51.47538 -1.9082966
25.070269 -50.97538 -1.9103591
25.070269 -50.47538 -1.912088
25.070269 -49.97538 -1.913483
25.070269 -49.47538 -1.9145443
25.070269 -48.97538 -1.9152719
25.070269 -48.47538 -1.9156657
25.070269 -47.97538 -1.9157257
25.070269 -47.47538 -1.915452
25.070269 -46.97538 -1.9148445
25.070269 -46.47538 -1.9139034
25.070269 -45.97538 -1.9126283
25.070269 -45.47538 -1.9110196
25.070269 -44.97538 -1.9092367
25.070269 -44.47538 -1.9074392
25.070269 -43.97538 -1.9056273
25.070269 -43.47538 -1.9038007
25.070269 -42.97538 -1.9019597
25.070269 -42.47538 -1.900104
25.070269 -41.97538 -1.8982339
25.070269 -41.47538 -1.8963493
25.070269 -40.97538 -1.8944501
25.070269 -40.47538 -1.8925364
25.070269 -39.97538 -1.8906081
25.070269 -39.47538 -1.8886653
25.070269 -38.97538 -1.886708
25.070269 -38.47538 -1.8847361
25.070269 -37.97538 -1.8827497
25.070269 -37.47538 -1.8807487
25.070269 -36.97538 -1.8787333
25.070269 -36.47538 -1.8767033
25.070269 -35.97538 -1.8746587
25.070269 -35.47538 -1.8725996
25.070269 -34.97538 -1.8705639
25.070269 -34.47538 -1.8685892
25.070269 -33.97538 -1.8666756
25.070269 -33.47538 -1.8648231
25.070269 -32.97538 -1.8630316
25.070269 -32.47538 -1.8613013
25.070269 -31.975378 -1.8596321
25.070269 -31.47538 -1.858024
25.070269 -30.97538 -1.856477
25.070269 -30.47538 -1.8549911
25.070269 -29.97538 -1.8535663
25.070269 -29.475378 -1.8522025
25.070269 -28.97538 -1.8508999
25.070269 -28.47538 -1.8496584
25.070269 -27.97538 -1.848478
25.070269 -27.47538 -1.8473586
25.070269 -26.975378 -1.8463004
25.070269 -26.47538 -1.8453032
25.070269 -25.97538 -1.8443671
25.070269 -25.47538 -1.8434922
25.070269 -24.975378 -1.8428357
25.070269 -24.47538 -1.8425547
25.070269 -23.97538 -1.8426495
25.070269 -23.475376 -1.8431199
25.070269 -22.97538 -1.843966
25.070269 -22.475378 -1.8451878
25.070269 -21.97538 -1.8467852
25.070269 -21.47538 -1.8487582
25.070269 -20.975376 -1.851107
25.070269 -20.47538 -1.8538314
25.070269 -19.975378 -1.8569316
25.070269 -19.47538 -1.8604072
25.070269 -18.97538 -1.8642586
25.070269 -18.475376 -1.8684858
25.070269 -17.97538 -1.8730885
25.070269 -17.475378 -1.8780669
25.070269 -16.97538 -1.8834209
25.070269 -16.47538 -1.8891507
25.070269 -15.975377 -1.8952562
25.070269 -15.47538 -1.9017371
25.070269 -14.962878 -1.9082648
25.070269 -14.425381 -1.9145098
25.070269 -13.862879 -1.9204724
25.070269 -13.275376 -1.9261522
25.070269 -12.66288 -1.9315497
25.070269 -12.025377 -1.9366645
25.070269 -11.362882 -1.9414967
25.070269 -10.675379 -1.9460464
25.070269 -9.9628754 -1.9503136
25.070269 -9.2253799 -1.954298
25.070269 -8.4628773 -1.9580001
25.070269 -7.6753817 -1.9614195
25.070269 -6.8628783 -1.9645565
25.070269 -6.0253749 -1.9674107
25.070269 -5.1628799 -1.9699825
25.070269 -4.2753763 -1.9722717
25.070269 -3.3628817 -1.9742783
25.070269 -2.4253781 -1.9760025
25.070269 -1.4628744 -1.9774439
25.070269 -0.47537994 -1.9786029
25.570271 -70.47538 -1.862184
25.570271 -69.487877 -1.8590908
25.570271 -68.525383 -1.8563983
25.570271 -67.587883 -1.8541064
25.570271 -66.675377 -1.8522153
25.570271 -65.78788 -1.8507248
25.570271 -64.925377 -1.8496351
25.570271 -64.087883 -1.848946
25.570271 -63.275379 -1.8486576
25.570271 -62.487881 -1.84877
25.570271 -61.72538 -1.849283
25.570271 -60.987881 -1.8501967
25.570271 -60.275379 -1.8515111
25.570271 -59.587879 -1.8532263
25.570271 -58.925381 -1.855342
25.570271 -58.28788 -1.8578585
25.570271 -57.675381 -1.8607757
25.570271 -57.087879 -1.8640937
25.570271 -56.525379 -1.8678122
25.570271 -55.987881 -1.8719314
25.570271 -55.47538 -1.8764515
25.570271 -54.97538 -1.8810154
25.570271 -54.47538 -1.8852669
25.570271 -53.97538 -1.8892056
25.570271 -53.47538 -1.8928318
25.570271 -52.97538 -1.8961452
25.570271 -52.47538 -1.8991462
25.570271 -51.97538 -1.9018345
25.570271 -51.47538 -1.9042101
25.570271 -50.97538 -1.9062731
25.570271 -50.47538 -1.9080235
25.570271 -49.97538 -1.9094613
25.570271 -49.47538 -1.9105865
25.570271 -48.97538 -1.911399
25.570271 -48.47538 -1.9118989
25.570271 -47.97538 -1.9120862
25.570271 -47.47538 -1.9119608
25.570271 -46.97538 -1.9115229
25.570271 -46.47538 -1.9107723
25.570271 -45.97538 -1.9097091
25.570271 -45.47538 -1.9083333
25.570271 -44.97538 -1.9067917
25.570271 -44.47538 -1.905231
25.570271 -43.97538 -1.9036512
25.570271 -43.47538 -1.9020525
25.570271 -42.97538 -1.9004347
25.570271 -42.47538 -1.8987979
25.570271 -41.97538 -1.8971421
25.570271 -41.47538 -1.8954672
25.570271 -40.97538 -1.8937732
25.570271 -40.47538 -1.8920602
25.570271 -39.97538 -1.8903282
25.570271 -39.47538 -1.8885772
25.570271 -38.97538 -1.8868071
25.570271 -38.47538 -1.885018
25.570271 -37.97538 -1.8832099
25.570271 -37.47538 -1.8813827
25.570271 -36.97538 -1.8795365
25.570271 -36.47538 -1.8776712
25.570271 -35.97538 -1.875787
25.570271 -35.47538 -1.8738837
25.570271 -34.97538 -1.8719943
25.570271 -34.47538 -1.8701515
25.570271 -33.97538 -1.8683554
25.570271 -33.47538 -1.866606
25.570271 -32.97538 -1.8649033
25.570271 -32.47538 -1.8632474
25.570271 -31.975378 -1.8616381
25.570271 -31.47538 -1.8600756
25.570271 -30.97538 -1.8585597
25.570271 -30.47538 -1.8570905
25.570271 -29.97538 -1.8556681
25.570271 -29.475378 -1.8542923
25.570271 -28.97538 -1.8529632
25.570271 -28.47538 -1.8516809
25.570271 -27.97538 -1.8504452
25.570271 -27.47538 -1.8492563
25.570271 -26.975378 -1.848114
25.570271 -26.47538 -1.8470184
25.570271 -25.97538 -1.8459696
25.570271 -25.47538 -1.8449674
25.570271 -24.975378 -1.844189
25.570271 -24.47538 -1.843812
25.570271 -23.97538 -1.8438358
25.570271 -23.475376 -1.8442608
25.570271 -22.97538 -1.8450869
25.570271 -22.475378 -1.8463142
25.570271 -21.97538 -1.8479425
25.570271 -21.47538 -1.8499718
25.570271 -20.975376 -1.8524023
25.570271 -20.47538 -1.8552338
25.570271 -19.975378 -1.8584665
25.570271 -19.47538 -1.8621002
25.570271 -18.97538 -1.8661351
25.570271 -18.475376 -1.870571
25.570271 -17.97538 -1.8754081
25.570271 -17.475378 -1.8806461
25.570271 -16.97538 -1.8862853
25.570271 -16.47538 -1.8923256
25.570271 -15.975377 -1.8987671
25.570271 -15.47538 -1.9056095
25.570271 -14.962878 -1.9124855
25.570271 -14.425381 -1.9190274
25.570271 -13.862879 -1.9252353
25.570271 -13.275376 -1.9311091
25.570271 -12.66288 -1.9366487
25.570271 -12.025377 -1.9418545
25.570271 -11.362882 -1.946726
25.570271 -10.675379 -1.9512635
25.570271 -9.9628754 -1.955467
25.570271 -9.2253799 -1.9593363
25.570271 -8.4628773 -1.9628716
25.570271 -7.6753817 -1.9660728
25.570271 -6.8628783 -1.9689399
25.570271 -6.0253749 -1.9714731
25.570271 -5.1628799 -1.973672
25.570271 -4.2753763 -1.9755369
25.570271 -3.3628817 -1.9770678
25.570271 -2.4253781 -1.9782647
25.570271 -1.4628744 -1.9791274
25.570271 -0.47537994 -1.9796561
26.070272 -70.47538 -1.8625534
26.070272 -69.487877 -1.8592553
26.070272 -68.525383 -1.8563539
26.070272 -67.587883 -1.8538491
26.070272 -66.675377 -1.8517407
26.070272 -65.78788 -1.8500289
26.070272 -64.925377 -1.8487136
26.070272 -64.087883 -1.847795
26.070272 -63.275379 -1.8472729
26.070272 -62.487881 -1.8471472
26.070272 -61.72538 -1.8474182
26.070272 -60.987881 -1.8480856
26.070272 -60.275379 -1.8491497
26.070272 -59.587879 -1.8506103
26.070272 -58.925381 -1.8524674
26.070272 -58.28788 -1.8547211
26.070272 -57.675381 -1.8573713
26.070272 -57.087879 -1.8604181
26.070272 -56.525379 -1.8638614
26.070272 -55.987881 -1.8677013
26.070272 -55.47538 -1.8719378
26.070272 -54.97538 -1.8762302
26.070272 -54.47538 -1.8802383
26.070272 -53.97538 -1.8839619
26.070272 -53.47538 -1.8874011
26.070272 -52.97538 -1.8905557
26.070272 -52.47538 -1.8934261
26.070272 -51.97538 -1.8960119
26.070272 -51.47538 -1.8983134
26.070272 -50.97538 -1.9003303
26.070272 -50.47538 -1.9020629
26.070272 -49.97538 -1.903511
26.070272 -49.47538 -1.9046748
26.070272 -48.97538 -1.9055539
26.070272 -48.47538 -1.9061488
26.070272 -47.97538 -1.9064591
26.070272 -47.47538 -1.9064851
26.070272 -46.97538 -1.9062266
26.070272 -46.47538 -1.9056836
26.070272 -45.97538 -1.9048563
26.070272 -45.47538 -1.9037445
26.070272 -44.97538 -1.9024785
26.070272 -44.47538 -1.9011883
26.070272 -43.97538 -1.899874
26.070272 -43.47538 -1.8985356
26.070272 -42.97538 -1.8971732
26.070272 -42.47538 -1.8957865
26.070272 -41.97538 -1.8943759
26.070272 -41.47538 -1.8929411
26.070272 -40.97538 -1.8914822
26.070272 -40.47538 -1.8899993
26.070272 -39.97538 -1.8884922
26.070272 -39.47538 -1.8869611
26.070272 -38.97538 -1.8854058
26.070272 -38.47538 -1.8838265
26.070272 -37.97538 -1.882223
26.070272 -37.47538 -1.8805954
26.070272 -36.97538 -1.8789438
26.070272 -36.47538 -1.877268
26.070272 -35.97538 -1.8755682
26.070272 -35.47538 -1.8738441
26.070272 -34.97538 -1.8721236
26.070272 -34.47538 -1.8704337
26.070272 -33.97538 -1.8687747
26.070272 -33.47538 -1.8671463
26.070272 -32.97538 -1.8655487
26.070272 -32.47538 -1.863982
26.070272 -31.975378 -1.8624458
26.070272 -31.47538 -1.8609406
26.070272 -30.97538 -1.8594661
26.070272 -30.47538 -1.8580223
26.070272 -29.97538 -1.8566095
26.070272 -29.475378 -1.8552272
26.070272 -28.97538 -1.8538758
26.070272 -28.47538 -1.852555
26.070272 -27.97538 -1.8512652
26.070272 -27.47538 -1.850006
26.070272 -26.975378 -1.8487777
26.070272 -26.47538 -1.8475801
26.070272 -25.97538 -1.8464131
26.070272 -25.47538 -1.8452771
26.070272 -24.975378 -1.8443702
26.070272 -24.47538 -1.843891
26.070272 -23.97538 -1.8438395
26.070272 -23.475376 -1.8442156
26.070272 -22.97538 -1.8450195
26.070272 -22.475378 -1.8462509
26.070272 -21.97538 -1.84791
26.070272 -21.47538 -1.8499968
26.070272 -20.975376 -1.8525113
26.070272 -20.47538 -1.8554534
26.070272 -19.975378 -1.8588232
26.070272 -19.47538 -1.8626206
26.070272 -18.97538 -1.8668457
26.070272 -18.475376 -1.8714986
26.070272 -17.97538 -1.8765789
26.070272 -17.475378 -1.8820871
26.070272 -16.97538 -1.8880228
26.070272 -16.47538 -1.8943863
26.070272 -15.975377 -1.9011774
26.070272 -15.47538 -1.9083961
26.070272 -14.962878 -1.9156348
26.070272 -14.425381 -1.922485
26.070272 -13.862879 -1.9289472
26.070272 -13.275376 -1.9350213
26.070272 -12.66288 -1.9407071
26.070272 -12.025377 -1.9460047
26.070272 -11.362882 -1.9509143
26.070272 -10.675379 -1.9554356
26.070272 -9.9628754 -1.9595689
26.070272 -9.2253799 -1.9633138
26.070272 -8.4628773 -1.9666706
26.070272 -7.6753817 -1.9696393
26.070272 -6.8628783 -1.9722198
26.070272 -6.0253749 -1.9744122
26.070272 -5.1628799 -1.9762164
26.070272 -4.2753763 -1.9776324
