# .PCD v0.7 - Point Cloud Data file format
VERSION 0.7
FIELDS x y z
SIZE 4 4 4
TYPE F F F
COUNT 1 1 1
WIDTH 1426
HEIGHT 1
VIEWPOINT 0 0 0 1 0 0 0
POINTS 1426
DATA ascii
-43.1371 -25.832474 -0.69712287
-41.955444 -25.82863 -0.80712116
-41.300617 -25.917204 -0.93994379
-40.775864 -25.884031 -0.8586247
-40.052387 -25.852097 -0.81836635
-39.764111 -25.824144 -0.67144561
-38.525764 -25.783667 -0.81684709
-38.366936 -25.90542 -0.52194762
-37.656857 -25.759048 -0.87613416
-37.176804 -25.760248 -0.86384845
-36.767376 -25.87324 -0.78872293
-36.308449 -25.618404 -0.8408556
-35.865372 -25.814592 -0.84794712
-35.230801 -25.806486 -0.63254589
-34.110188 -25.809698 -0.90497094
-33.913441 -25.66581 -0.79578483
-33.17466 -25.951931 -0.62235123
-32.885864 -25.67156 -0.73093641
-32.109222 -25.612476 -0.72063392
-31.847065 -25.608608 -0.79879808
-31.037277 -25.681496 -0.63928473
-30.925072 -25.573593 -0.72169608
-30.347967 -25.524586 -0.67452669
-29.603462 -25.701277 -0.54335117
-29.217354 -25.657211 -0.66596854
-28.970022 -25.912426 -0.58242863
-28.361094 -25.908527 -0.70885623
-27.820267 -25.530773 -0.60226387
-27.433104 -25.615791 -0.75892925
-25.654858 -25.974777 -0.69693029
-24.201273 -25.864132 -0.87270504
-22.032089 -25.645035 -0.86680901
-20.267052 -25.587975 -0.80109513
-17.911018 -25.521273 -0.64344263
-11.920207 -25.966101 -0.97718549
-8.040453 -25.662434 -0.89481342
-6.6963568 -25.698421 -0.92156225
-6.0730448 -25.935711 -0.75943398
-5.8498158 -25.800098 -0.9014073
-4.5990696 -25.576088 -0.92526376
-3.8702478 -25.903162 -0.93815595
-2.6897717 -25.704079 -0.89706373
-2.079489 -25.974697 -0.90625763
-1.6616776 -25.652533 -0.92080116
-1.2585473 -25.688604 -0.9633705
0.12756343 -25.708204 -0.83568573
10.143671 -25.67944 -0.76174712
10.635557 -25.595573 -0.92109579
26.968031 -25.778885 -0.79285222
27.228842 -25.752645 -0.80995405
27.623753 -25.822577 -0.78554362
28.077101 -25.912682 -0.79667705
-95.687187 -25.395084 -0.88799071
-94.627998 -25.188354 -0.97377217
-94.413925 -25.113262 -0.82665944
-93.259521 -25.440886 -0.81872994
-92.345284 -25.499798 -0.90589124
-91.63382 -25.072466 -0.95827359
-91.087059 -25.174286 -0.7302531
-90.596863 -25.358952 -0.70905113
-90.11937 -25.19195 -0.68490684
-89.793457 -25.311436 -0.65013373
-89.201263 -25.259575 -0.64807701
-88.901993 -25.209249 -0.75642502
-75.219536 -25.475784 -0.71247637
-74.69986 -25.215347 -0.50586981
-73.319176 -25.158455 -0.50513935
-71.893707 -25.278616 -0.5886476
-69.947861 -25.208727 -0.50932926
-68.54364 -25.239475 -0.68172258
-68.488899 -25.236816 -0.6314584
-67.527275 -25.32609 -0.54119259
-67.00811 -25.007486 -0.75534517
-66.383286 -25.484871 -0.69028258
-65.745361 -25.210094 -0.57005733
-62.810635 -25.08737 -0.59174955
-62.207794 -25.299683 -0.50554818
-61.303303 -25.138617 -0.66413498
-60.59301 -25.441477 -0.6055209
-60.199184 -25.178675 -0.65413976
-59.824356 -25.008415 -0.58893561
-58.652615 -25.131264 -0.59104741
-57.962856 -25.079006 -0.52294773
-56.105404 -25.310837 -0.63183844
-55.909073 -25.051468 -0.66604292
-44.239815 -25.368048 -0.81403857
-43.466816 -25.23004 -0.86824542
-41.769005 -25.053406 -0.8686043
-41.419281 -25.125631 -0.92101562
-39.726807 -25.167215 -0.97444254
-39.000141 -25.298651 -0.95963448
-38.738373 -25.373367 -0.71004117
-38.179688 -25.141071 -0.92389715
-37.946003 -25.406944 -0.756827
-37.167889 -25.361032 -0.51735163
-36.726757 -25.049326 -0.60217804
-36.237068 -25.282166 -0.7933625
-34.771103 -25.21224 -0.73021054
-34.114002 -25.301443 -0.60923344
-33.791576 -25.144785 -0.60186267
-33.182507 -25.144238 -0.69246048
-32.697948 -25.203949 -0.69011569
-32.336922 -25.105379 -0.65884554
-31.176184 -25.212513 -0.59761047
-29.896296 -25.235672 -0.57630008
-28.634691 -25.114422 -0.74946785
-28.448418 -25.356539 -0.69059014
-27.749603 -25.294724 -0.74438971
-27.300028 -25.406122 -0.69110996
-26.862469 -25.045921 -0.77602553
-26.462759 -25.09552 -0.6087923
-25.860422 -25.221771 -0.79002559
-25.077496 -25.336231 -0.72085953
-24.106234 -25.105574 -0.54490912
-23.99214 -25.105341 -0.69318533
-21.776493 -25.249685 -0.80237919
-17.746674 -25.305243 -0.73842055
-11.660396 -25.350798 -0.84350795
-7.6228566 -25.142778 -0.85761744
-3.5159013 -25.050545 -0.95801252
-3.1824429 -25.270807 -0.96146035
-2.5869741 -25.170969 -0.98228252
-1.7794616 -25.442417 -0.95069665
-0.76943594 -25.134253 -0.75305086
-0.16842951 -25.388145 -0.88760877
0.34945491 -25.145973 -0.92319447
0.83537591 -25.178209 -0.885324
1.1295118 -25.212042 -0.84630072
2.8227279 -25.259264 -0.95396876
8.1251879 -25.12919 -0.97314131
9.1881781 -25.438238 -0.69686425
10.168218 -25.201271 -0.79319322
25.797272 -25.076773 -0.91101354
26.429081 -25.499666 -0.96593487
26.922329 -25.256876 -0.99272448
27.30827 -25.281265 -0.88026971
27.654869 -25.14637 -0.75364119
-92.645638 -24.608521 -0.94705039
-90.671097 -24.748344 -0.8496666
-90.286766 -24.662495 -0.87448525
-89.782936 -24.727219 -0.86946553
-89.488777 -24.988443 -0.92745894
-87.792831 -24.739437 -0.83141345
-84.021942 -24.516861 -0.5458138
-80.42057 -24.581745 -0.67236602
-77.876274 -24.59137 -0.72908753
-75.982605 -24.863894 -0.50744921
-73.602478 -24.831762 -0.51720721
-72.924324 -24.735655 -0.53364694
-71.794685 -24.891169 -0.61287475
-71.121895 -24.7778 -0.50121486
-70.601158 -24.75115 -0.5700314
-70.431618 -24.657318 -0.62889028
-68.727562 -24.839769 -0.52254438
-67.232895 -24.610043 -0.58938229
-66.547943 -24.745804 -0.6093601
-65.631104 -24.747227 -0.55159062
-65.306114 -24.701778 -0.51981384
-64.990089 -24.728374 -0.56677037
-63.403084 -24.839542 -0.52080339
-62.225075 -24.633322 -0.555309
-61.222168 -24.689964 -0.61235678
-60.728497 -24.790874 -0.61855787
-60.171806 -24.877638 -0.55603004
-59.828747 -24.911491 -0.56533706
-58.985153 -24.593998 -0.54447681
-58.06443 -24.639704 -0.55050927
-57.834625 -24.535913 -0.51069033
-57.487736 -24.953766 -0.51820308
-56.349735 -24.750891 -0.70903927
-53.987011 -24.81274 -0.72436458
-53.02742 -24.660894 -0.64955741
-52.912788 -24.640684 -0.61318254
-50.413998 -24.556047 -0.52997035
-43.505299 -24.878483 -0.82854903
-43.450245 -24.874828 -0.81003934
-42.943058 -24.654003 -0.91215789
-39.786804 -24.693188 -0.94801617
-39.152599 -24.861609 -0.94627392
-37.03891 -24.795063 -0.71879375
-36.881741 -24.771814 -0.62367922
-36.154922 -24.779823 -0.69353569
-35.566597 -24.832256 -0.88204467
-35.105614 -24.91432 -0.82098019
-34.815491 -24.785208 -0.59396613
-33.788166 -24.626221 -0.6702646
-33.365093 -24.761694 -0.64431155
-32.742058 -24.696926 -0.75835252
-32.215771 -24.703102 -0.6900385
-31.781467 -24.687428 -0.73756993
-31.209826 -24.798983 -0.68112522
-30.851175 -24.750486 -0.67179549
-30.202923 -24.787106 -0.66163409
-29.7596 -24.644035 -0.64382237
-29.177345 -24.665558 -0.81190908
-28.741804 -24.844894 -0.77723104
-28.141626 -24.912714 -0.61462009
-27.757452 -24.683548 -0.6473031
-26.893225 -24.697359 -0.65597057
-25.629492 -24.864935 -0.85148996
-25.310713 -24.799671 -0.77552295
-24.606075 -24.808584 -0.81343323
-24.467968 -24.779768 -0.83727062
-23.702927 -24.604044 -0.94658852
-23.425373 -24.708025 -0.8771019
-22.085035 -24.749792 -0.86331862
-21.859648 -24.618935 -0.83020103
-21.182951 -24.536152 -0.86995387
-19.41761 -24.717041 -0.77259427
-17.590675 -24.511532 -0.66080135
-17.071188 -24.53838 -0.89405417
-6.1459947 -24.694635 -0.92984039
-2.2559662 -24.709097 -0.90779656
-0.68663418 -24.954414 -0.98905766
0.82672358 -24.953091 -0.71093619
1.1311185 -24.866955 -0.98302436
2.0661063 -24.506468 -0.84260046
2.614933 -24.584253 -0.98000437
3.2294798 -24.676411 -0.90242356
4.1322875 -24.700377 -0.96279776
7.8149061 -24.652216 -0.6774689
8.2817574 -24.734138 -0.78881884
8.8159294 -24.696499 -0.73878062
9.1433449 -24.749876 -0.69859165
9.7612114 -24.584372 -0.72042131
10.216317 -24.742989 -0.72505474
10.718566 -24.768827 -0.85919929
25.50635 -24.6087 -0.87565285
26.840559 -24.59215 -0.84728014
27.141199 -24.846704 -0.85318011
27.762091 -24.866899 -0.78429204
-93.517311 -24.338377 -0.96348435
-92.029503 -24.337173 -0.94906634
-91.96225 -24.368399 -0.92362648
-91.175575 -24.221363 -0.89894044
-90.201035 -24.07737 -0.84756327
-89.807632 -24.313158 -0.85804212
-89.248138 -24.329735 -0.78159904
-88.12661 -24.122608 -0.94696027
-87.761337 -24.260235 -0.93996513
-83.813187 -24.001575 -0.96780962
-73.918831 -24.032101 -0.50476044
-72.505745 -24.412952 -0.65148813
-72.246613 -24.048269 -0.5922699
-71.520462 -24.078917 -0.70249182
-71.226051 -24.040888 -0.58091253
-70.142517 -24.345556 -0.5297268
-69.068748 -24.164692 -0.61461651
-67.739975 -24.23461 -0.62643343
-67.126274 -24.014788 -0.51997852
-66.050217 -24.092045 -0.62456989
-65.81617 -24.044292 -0.54082423
-65.00087 -24.214949 -0.64626753
-64.83905 -24.26952 -0.67924184
-64.335854 -24.184502 -0.59884876
-63.448959 -24.16885 -0.6723752
-62.313305 -24.050592 -0.62716371
-61.755054 -24.055573 -0.59932673
-60.820637 -24.300587 -0.6716882
-59.603596 -24.00193 -0.51436156
-59.066166 -24.141054 -0.57345581
-58.627823 -24.209917 -0.57581246
-58.356281 -24.118246 -0.6639989
-57.767487 -24.441935 -0.55015773
-57.117092 -24.205984 -0.60140985
-56.797115 -24.281134 -0.58866429
-56.256001 -24.200272 -0.62681735
-55.583439 -24.061501 -0.54975206
-55.161366 -24.402832 -0.64550537
-54.794456 -24.095858 -0.56403816
-53.976654 -24.050873 -0.58009511
-50.399952 -24.281042 -0.92179787
-41.327145 -24.38604 -0.96521455
-38.611546 -24.25663 -0.51821297
-38.364651 -24.11771 -0.88662946
-37.168682 -24.354856 -0.92605567
-35.754543 -24.026997 -0.62732011
-35.172489 -24.428976 -0.82286263
-34.849186 -24.187698 -0.93807417
-33.5947 -24.439856 -0.74654287
-33.195217 -24.4536 -0.64639306
-32.670353 -24.328058 -0.61635542
-32.356251 -24.153242 -0.7496776
-31.848282 -24.237631 -0.72344476
-31.153566 -24.186666 -0.75219905
-30.752443 -24.247456 -0.6972658
-30.445963 -24.34631 -0.57921308
-29.266193 -24.046467 -0.67589211
-28.737484 -24.272472 -0.58525538
-28.430143 -24.252041 -0.65623283
-27.725191 -24.249613 -0.67985767
-27.259409 -24.340616 -0.64814156
-26.693743 -24.182926 -0.65334713
-26.251709 -24.326471 -0.64272249
-25.163559 -24.235682 -0.77005643
-24.762991 -24.098511 -0.81184155
-24.259069 -24.224909 -0.69302112
-23.604864 -24.444796 -0.78889298
-23.27153 -24.29018 -0.87719482
-22.764538 -24.167828 -0.65461969
-22.308548 -24.249405 -0.88822275
-21.794083 -24.461586 -0.83196926
-17.116644 -24.464666 -0.9677918
-16.291361 -24.129099 -0.92874402
-15.707715 -24.120502 -0.98552579
3.293762 -24.269997 -0.94629657
6.4618883 -24.135338 -0.84325039
7.93432 -24.490435 -0.99203223
8.2409229 -24.113874 -0.63577765
8.8060522 -24.291864 -0.54211992
9.0959587 -24.314911 -0.58216357
9.7534866 -24.333805 -0.64145279
10.080879 -24.171066 -0.67100286
26.119165 -24.482809 -0.99786282
26.82095 -24.406954 -0.75621855
27.329334 -24.15851 -0.79096824
27.613384 -24.134247 -0.79211891
-92.36927 -23.88377 -0.90367675
-91.530365 -23.736498 -0.91465515
-91.432724 -23.850809 -0.91073543
-90.613411 -23.691057 -0.87691551
-90.146622 -23.892216 -0.90314484
-89.914711 -23.810251 -0.88205194
-88.343742 -23.505419 -0.8813132
-87.156967 -23.897144 -0.91408753
-85.055946 -23.677811 -0.88306344
-84.975929 -23.822142 -0.95633906
-83.768127 -23.938618 -0.89944059
-80.819344 -23.667709 -0.71209854
-78.118912 -23.575779 -0.95045555
-77.982628 -23.543924 -0.82685608
-75.649605 -23.936604 -0.57806689
-74.327515 -23.634497 -0.52622056
-72.422531 -23.640368 -0.62036639
-70.439003 -23.883615 -0.55318356
-69.091103 -23.88987 -0.64142793
-68.833138 -23.88409 -0.65644091
-68.048485 -23.582355 -0.50920212
-67.69706 -23.574394 -0.55747557
-66.5177 -23.879816 -0.6342997
-65.717163 -23.874847 -0.54609251
-64.724358 -23.766354 -0.59685308
-64.245491 -23.722807 -0.72487104
-63.777901 -23.674114 -0.6350283
-62.599651 -23.587357 -0.68687701
-62.242516 -23.915493 -0.58512872
-61.922203 -23.936394 -0.7147156
-61.06794 -23.821766 -0.56960106
-60.101826 -23.738144 -0.60778517
-59.913101 -23.585039 -0.58667082
-59.036049 -23.693325 -0.52857512
-57.843216 -23.856581 -0.52126241
-56.553661 -23.532072 -0.73366714
-56.237782 -23.658449 -0.72468573
-55.883614 -23.766918 -0.54418951
-55.181602 -23.647184 -0.65498036
-54.702087 -23.793993 -0.62282747
-53.645622 -23.774942 -0.71143508
-53.165546 -23.738962 -0.62564617
-52.627277 -23.624226 -0.64524102
-52.458145 -23.623549 -0.6216616
-51.913464 -23.516811 -0.59521806
-51.064003 -23.750175 -0.60571092
-33.765411 -23.895266 -0.96800977
-33.273773 -23.648844 -0.77396595
-32.917702 -23.701918 -0.62649608
-32.384075 -23.778795 -0.83151317
-31.686796 -23.678114 -0.60996073
-31.304541 -23.800772 -0.75544232
-30.991135 -23.781572 -0.6087203
-30.354721 -23.545685 -0.67571676
-29.821779 -23.713999 -0.6167863
-29.166004 -23.758778 -0.52591085
-28.766581 -23.729261 -0.6550774
-28.187342 -23.584599 -0.67328298
-27.212833 -23.811617 -0.75956953
-26.856277 -23.552279 -0.80590016
-26.196405 -23.704882 -0.63017964
-24.735428 -23.564672 -0.55036157
-24.291513 -23.782085 -0.92846566
-23.759138 -23.739401 -0.75605327
-23.263336 -23.830334 -0.84146219
-22.961267 -23.92511 -0.80051661
-20.704422 -23.676544 -0.82909983
-18.616816 -23.677574 -0.89971358
-18.433605 -23.61764 -0.90543425
-17.141537 -23.577913 -0.9687413
-16.756371 -23.76432 -0.85958636
-15.788498 -23.850727 -0.93077534
-15.428589 -23.743219 -0.74251956
1.3434814 -23.542542 -0.84909987
6.4621401 -23.94997 -0.96037388
7.2555771 -23.754536 -0.84256172
7.895947 -23.637629 -0.52071798
8.3645458 -23.680637 -0.80058479
8.7608671 -23.704332 -0.80403841
9.2781763 -23.735676 -0.81237257
9.6969185 -23.795029 -0.76923025
10.192411 -23.78944 -0.8979007
21.742712 -23.752998 -0.93211675
26.255083 -23.866056 -0.98679763
26.771416 -23.776497 -0.84556204
27.264418 -23.761484 -0.87887371
27.600592 -23.919357 -0.7862711
35.598282 -23.585018 -0.92683738
-105.15573 -23.072741 -0.79094207
-90.511292 -23.460356 -0.750651
-89.883018 -23.432947 -0.85392118
-88.656746 -23.322983 -0.85864812
-88.360626 -23.264843 -0.8222186
-87.453354 -23.459175 -0.86988652
-86.644127 -23.114557 -0.88779062
-85.723679 -23.008234 -0.84541374
-85.055206 -23.421619 -0.87902701
-84.81472 -23.31502 -0.84924376
-83.736511 -23.126173 -0.95140105
-83.163887 -23.04772 -0.87705302
-82.225937 -23.224747 -0.98199522
-81.817551 -23.218552 -0.82868117
-80.759529 -23.459791 -0.64042091
-80.173859 -23.393618 -0.79858541
-79.784676 -23.248301 -0.79034626
-79.146637 -23.267075 -0.66965079
-78.912422 -23.177385 -0.70785159
-73.280991 -23.463284 -0.58798754
-72.505051 -23.365963 -0.59986866
-70.607285 -23.461206 -0.50180829
-68.913155 -23.019224 -0.51151049
-67.122353 -23.335085 -0.60555595
-65.219582 -23.284561 -0.61663342
-64.75293 -23.2834 -0.58458662
-64.234818 -23.196091 -0.61076403
-63.286755 -23.306112 -0.53935844
-62.580662 -23.208433 -0.92963988
-61.851215 -23.292677 -0.7304194
-60.123291 -23.017612 -0.77024662
-58.126282 -23.207775 -0.70213765
-57.812317 -23.189428 -0.69665998
-56.661335 -23.41844 -0.64917433
-56.321106 -23.229557 -0.59514725
-55.81773 -23.396988 -0.59306788
-54.699615 -23.162062 -0.70012206
-54.29538 -23.278988 -0.71472561
-53.774456 -23.13833 -0.66530389
-53.312885 -23.063141 -0.95319325
-52.60844 -23.193132 -0.71519607
-52.444351 -23.180874 -0.74316388
-51.047321 -23.241596 -0.67801857
-50.505085 -23.424633 -0.70593911
-49.812073 -23.15719 -0.5750308
-48.204136 -23.108728 -0.53325099
-34.00668 -23.043793 -0.96303827
-32.35862 -23.228327 -0.671758
-31.523071 -23.381788 -0.85443574
-31.248238 -23.310898 -0.72860575
-30.749582 -23.347097 -0.63840801
-30.149115 -23.443687 -0.58813375
-29.849163 -23.224787 -0.63141674
-28.656433 -23.179493 -0.78466529
-28.392422 -23.17219 -0.72431314
-27.708498 -23.181198 -0.67740327
-27.483582 -23.068539 -0.56011397
-26.704214 -23.067327 -0.70073128
-26.202599 -23.198362 -0.80272144
-25.83992 -23.186071 -0.79876292
-25.12579 -23.372818 -0.64841539
-24.823988 -23.061296 -0.70165855
-24.322386 -23.135365 -0.85877287
-23.646759 -23.42037 -0.88176447
-22.668619 -23.148813 -0.60790259
-21.698214 -23.218729 -0.86568785
-20.146597 -23.317156 -0.71493971
-19.449722 -23.060726 -0.89733028
-18.545977 -23.004669 -0.92919469
-18.391224 -23.387846 -0.76973122
-17.304886 -23.374258 -0.66561264
-16.641642 -23.25481 -0.84647286
7.9250088 -23.424162 -0.93614221
8.4028769 -23.464293 -0.71562892
8.8340683 -23.46229 -0.50346482
9.3509817 -23.344812 -0.55230033
9.7927532 -23.16431 -0.72256517
10.146835 -23.461235 -0.83155423
26.363005 -23.114262 -0.88710237
27.29001 -23.291595 -0.85137624
27.723213 -23.129435 -0.98336464
-101.02291 -22.516037 -0.75563443
-88.782921 -22.867079 -0.75502819
-86.784355 -22.882526 -0.57717723
-86.261383 -22.810694 -0.72384274
-85.691727 -22.910316 -0.87355256
-85.181946 -22.801821 -0.76780772
-84.67112 -22.752167 -0.79840684
-84.097893 -22.762541 -0.86105901
-83.067001 -22.976366 -0.90629679
-82.600204 -22.769747 -0.77246821
-73.503632 -22.802961 -0.57254791
-68.86647 -22.961357 -0.61141407
-68.226288 -22.834757 -0.71973544
-67.252289 -22.921329 -0.69217372
-66.003807 -22.822929 -0.7063123
-63.712982 -22.644951 -0.70842862
-63.305199 -22.791462 -0.74346954
-62.760864 -22.753145 -0.82239729
-62.233494 -22.62525 -0.71953422
-61.558434 -22.868305 -0.66475558
-61.230438 -22.833048 -0.71413505
-60.769554 -22.511824 -0.80215847
-59.178505 -22.863619 -0.75204021
-57.990753 -22.554214 -0.79934174
-56.585918 -22.664999 -0.81407762
-56.304642 -22.827148 -0.6786834
-55.884396 -22.688137 -0.62721008
-54.665653 -22.579277 -0.68338186
-54.060841 -22.635246 -0.57829279
-53.835175 -22.728094 -0.71981001
-52.849903 -22.890198 -0.54624689
-51.211262 -22.730997 -0.59195524
-50.799767 -22.695807 -0.64857972
-50.183075 -22.736326 -0.60707617
-49.815231 -22.893425 -0.60165685
-49.210854 -22.604694 -0.59320873
-48.809074 -22.618885 -0.54030597
-48.126225 -22.569958 -0.5007208
-47.784149 -22.707996 -0.56125724
-47.451756 -22.960384 -0.65947539
-46.913151 -22.860348 -0.7048645
-46.415276 -22.694302 -0.81230825
-43.856441 -22.666758 -0.56439173
-38.221886 -22.822678 -0.77399164
-35.716824 -22.901028 -0.93916088
-32.791317 -22.550783 -0.95162159
-31.125994 -22.80942 -0.68720227
-30.246067 -22.52906 -0.79914933
-29.836197 -22.752457 -0.71388793
-29.41062 -22.68132 -0.73425531
-28.919735 -22.825874 -0.60106987
-28.333677 -22.720825 -0.67047971
-27.76923 -22.838268 -0.73892665
-27.192352 -22.927732 -0.58509409
-26.883398 -22.550734 -0.58436525
-26.139175 -22.79426 -0.60107881
-25.895393 -22.707394 -0.52459931
-25.286627 -22.880175 -0.71256447
-24.742382 -22.789715 -0.74295491
-24.261946 -22.811646 -0.80302769
-23.775204 -22.688408 -0.88863969
-23.149256 -22.739521 -0.82177287
-22.987764 -22.830524 -0.92802405
-22.190559 -22.774254 -0.68211257
-21.072834 -22.861584 -0.80915904
-20.426607 -22.838022 -0.83598715
-19.839397 -22.690918 -0.97067958
-19.018301 -22.675579 -0.976659
-18.079304 -22.506214 -0.84210354
-17.928398 -22.821793 -0.84696054
-17.3377 -22.875742 -0.78701359
-16.705078 -22.670458 -0.72151792
-14.637094 -22.767244 -0.68187207
-7.9329791 -22.872627 -0.99521071
8.7820578 -22.826914 -0.77865404
9.1499062 -22.847115 -0.58672714
9.7515898 -22.543968 -0.81907928
21.812887 -22.939371 -0.7298134
26.806757 -22.57933 -0.78538543
27.275352 -22.701925 -0.90823936
27.576611 -22.73695 -0.90689731
-102.28422 -22.370306 -0.60870397
-101.03188 -22.489019 -0.71592021
-99.314445 -22.252241 -0.86151814
-83.771843 -22.231936 -0.70116192
-83.109207 -22.374577 -0.83087134
-82.616409 -22.438816 -0.62450469
-80.315979 -22.29768 -0.96781307
-79.763481 -22.445333 -0.89850837
-77.482979 -22.376282 -0.76693839
-73.679504 -22.370708 -0.7370922
-70.954803 -22.427204 -0.52128857
-65.481758 -22.482531 -0.74723822
-63.802608 -22.024002 -0.74340725
-62.11013 -22.471315 -0.75334883
-61.662025 -22.287994 -0.63511735
-61.442795 -22.485653 -0.56618226
-60.500397 -22.251047 -0.72363204
-59.728699 -22.459095 -0.63867521
-59.146008 -22.138912 -0.74261785
-58.835323 -22.122828 -0.77658075
-58.063877 -22.164127 -0.81410885
-57.250439 -22.185093 -0.70908612
-56.219723 -22.24996 -0.89479446
-55.047054 -22.058344 -0.88011783
-54.522675 -22.360304 -0.71809286
-54.185135 -22.110348 -0.65218282
-53.714645 -22.428488 -0.59871322
-53.45364 -22.205702 -0.84179413
-51.616043 -22.24938 -0.72495091
-51.296806 -22.435192 -0.78344399
-50.665783 -22.206572 -0.61893809
-50.442928 -22.164412 -0.62066191
-49.099125 -22.405449 -0.54307127
-47.788975 -22.04661 -0.62162328
-47.175323 -22.108355 -0.70524758
-46.573067 -22.209526 -0.5781213
-45.186752 -22.253532 -0.54506803
-44.905205 -22.187 -0.61624944
-44.141586 -22.20602 -0.72652602
-43.079636 -22.465199 -0.6346671
-42.961658 -22.40733 -0.50308079
-38.195599 -22.48241 -0.83938646
-33.645863 -22.397795 -0.91048878
-29.203117 -22.221725 -0.64077961
-28.458321 -22.392544 -0.51946503
-27.60169 -22.332954 -0.6331057
-27.182119 -22.134899 -0.61711293
-26.790195 -22.402363 -0.68058532
-26.212322 -22.255432 -0.60818291
-25.235428 -22.200048 -0.68903422
-24.871941 -22.428871 -0.62892818
-23.689018 -22.23992 -0.78333777
-23.217936 -22.269409 -0.83521998
-22.706978 -22.326437 -0.84998626
-22.08407 -22.055889 -0.77539313
-21.869324 -22.438076 -0.85635388
-20.699821 -22.198393 -0.79660451
-20.24494 -22.205301 -0.77036899
-19.709808 -22.177248 -0.89229399
-19.434336 -22.273766 -0.78981978
-18.652594 -22.263098 -0.86961162
-18.487324 -22.138994 -0.69363773
-17.051233 -22.236206 -0.80238467
-16.854057 -22.405159 -0.7962333
-16.167984 -22.17601 -0.72233492
-15.798082 -22.03611 -0.68831325
-15.083406 -22.129211 -0.95819068
-14.17532 -22.064575 -0.82626575
-13.662102 -22.266205 -0.92607546
-13.256503 -22.195675 -0.99395889
-12.349182 -22.35552 -0.79511559
-3.5743115 -22.086817 -0.77171183
7.7111702 -22.399357 -0.94451034
8.8040133 -22.444723 -0.9037708
9.4036932 -22.207523 -0.81412888
9.6489515 -22.391161 -0.69506508
10.008974 -22.410009 -0.88191605
21.540939 -22.132545 -0.99209893
25.897705 -22.384714 -0.94610137
26.449453 -22.241623 -0.89175439
26.551296 -22.141294 -0.87984639
28.86739 -22.118359 -0.9426468
-96.331802 -21.694441 -0.92543817
-72.822105 -21.827282 -0.68578011
-62.530552 -21.881742 -0.79128247
-61.173115 -21.933254 -0.87433755
-60.673061 -21.531342 -0.79605103
-60.167896 -21.832514 -0.70276713
-58.265484 -21.758944 -0.72529596
-57.748882 -21.800987 -0.72306019
-57.27494 -21.746151 -0.68071485
-55.797451 -21.817366 -0.83393788
-55.411434 -21.83238 -0.79191953
-54.747879 -21.774094 -0.85255659
-54.421326 -21.648542 -0.74101728
-53.052105 -21.857897 -0.79236943
-52.836758 -21.611801 -0.79791683
-52.32193 -21.582409 -0.71833873
-51.694885 -21.585915 -0.6846931
-51.451473 -21.533016 -0.70024848
-49.886063 -21.933495 -0.5820927
-49.226841 -21.848677 -0.50695974
-48.29591 -21.825174 -0.59872562
-47.713181 -21.900656 -0.75465143
-47.224037 -21.730572 -0.70458102
-46.651585 -21.712099 -0.62671572
-46.458221 -21.922132 -0.57557148
-45.905899 -21.768391 -0.53845966
-45.308319 -21.72826 -0.65119207
-44.566063 -21.961964 -0.56142867
-43.950577 -21.609255 -0.73888135
-42.936932 -21.679483 -0.71357459
-42.326031 -21.732849 -0.72318822
-41.700672 -21.588886 -0.7009843
-27.351059 -21.883562 -0.57848608
-26.727562 -21.68601 -0.74374014
-26.250128 -21.724459 -0.71260321
-25.761316 -21.89851 -0.73919576
-25.46113 -21.714653 -0.7999801
-24.80056 -21.621861 -0.74317867
-23.57785 -21.91861 -0.80621183
-23.307522 -21.794502 -0.79670304
-22.772911 -21.791845 -0.87645566
-22.229073 -21.82843 -0.81324643
-21.832996 -21.938234 -0.93427908
-21.072638 -21.642815 -0.81477833
-20.830462 -21.766096 -0.70613527
-20.309917 -21.65115 -0.83476055
-19.922569 -21.577213 -0.84398168
-19.074104 -21.907259 -0.92496592
-18.784424 -21.925299 -0.76841974
-17.658573 -21.637733 -0.84453154
-17.204683 -21.760651 -0.95906085
-16.781897 -21.869188 -0.81753588
-16.223835 -21.967655 -0.7875123
-15.820978 -21.872091 -0.68431032
-15.092786 -21.869955 -0.72073036
-14.705535 -21.788164 -0.69121772
-12.576648 -21.791561 -0.89572293
-12.396118 -21.767525 -0.6737901
-10.43792 -21.629704 -0.81062579
-9.5806847 -21.662048 -0.97109658
-7.914587 -21.719166 -0.92557687
-6.0169654 -21.529495 -0.5033198
-5.9584141 -21.685745 -0.61528647
-4.020453 -21.989239 -0.82644123
-3.5854027 -21.604462 -0.93331164
-3.3891239 -21.733786 -0.90748996
-0.12378231 -21.590803 -0.99657774
7.9414101 -21.926302 -0.98883545
9.7797327 -21.751617 -0.66849923
10.396758 -21.943565 -0.99914211
20.587791 -21.906731 -0.69983214
21.596628 -21.981775 -0.9276225
26.783247 -21.585447 -0.88524246
35.796894 -21.545944 -0.94915509
-106.1956 -21.232145 -0.57844836
-99.295349 -21.246925 -0.85928619
-97.117805 -21.194757 -0.84799498
-96.898071 -21.332829 -0.81320798
-94.987862 -21.289572 -0.93229681
-93.722794 -21.048889 -0.81606293
-93.411652 -21.148159 -0.88647377
-92.304459 -21.240849 -0.95688891
-89.586258 -21.036415 -0.90724432
-58.5984 -21.340738 -0.86796689
-57.163101 -21.379389 -0.74625969
-56.536125 -21.258093 -0.68830097
-55.543022 -21.09091 -0.83146191
-55.245781 -21.072124 -0.89719069
-54.751286 -21.106524 -0.81865954
-54.26231 -21.25738 -0.71163672
-53.966156 -21.216362 -0.73940438
-53.117779 -21.40642 -0.7925297
-52.976917 -21.460958 -0.75310254
-52.40144 -21.154909 -0.96173567
-51.532173 -21.412621 -0.66956776
-51.318756 -21.219744 -0.67517245
-49.829151 -21.267706 -0.84923559
-49.311882 -21.094021 -0.66682959
-48.483772 -21.288988 -0.8728767
-47.875904 -21.289724 -0.64138228
-47.275436 -21.365923 -0.61387622
-46.564388 -21.414711 -0.58098
-46.33902 -21.431171 -0.58740014
-44.709663 -21.149149 -0.67618698
-44.281544 -21.490557 -0.75206226
-43.753635 -21.020945 -0.67043811
-42.588383 -21.419712 -0.62829542
-42.269806 -21.426981 -0.71161669
-41.674442 -21.239586 -0.69569051
-41.200363 -21.184149 -0.62365139
-40.94928 -21.056688 -0.62226659
-39.313431 -21.04451 -0.76911229
-28.215792 -21.425615 -0.5360387
-26.041553 -21.373005 -0.723997
-25.820705 -21.359798 -0.60028213
-24.776606 -21.274658 -0.58105105
-22.673765 -21.110046 -0.85142577
-22.306343 -21.158464 -0.82429338
-21.743834 -21.27951 -0.75649351
-21.082544 -21.087692 -0.82718813
-20.771276 -21.246264 -0.79148293
-20.093212 -21.225288 -0.79534674
-19.544832 -21.160255 -0.72119075
-19.229218 -21.271666 -0.71192425
-18.913931 -21.067759 -0.57037544
-18.174381 -21.324097 -0.68142146
-17.817612 -21.27977 -0.8470006
-17.28335 -21.407219 -0.56379402
-16.764971 -21.279526 -0.71413821
-16.355364 -21.013884 -0.73864698
-15.249258 -21.342663 -0.76905149
-14.590776 -21.240284 -0.65822923
-14.314922 -21.197021 -0.72906071
-13.761343 -21.212299 -0.9001959
-12.860718 -21.304508 -0.65560806
-11.561876 -21.358784 -0.8035109
-11.40386 -21.422234 -0.79626477
-9.6865425 -21.153326 -0.71873903
-9.4244108 -21.058218 -0.884839
-8.8409147 -21.25395 -0.68432838
-6.9773617 -21.084023 -0.78327382
-6.4365983 -21.204241 -0.72589159
-5.0523629 -21.484291 -0.7152074
-4.9722438 -21.406364 -0.91400731
-0.42052391 -21.098076 -0.98105991
9.2346191 -21.259481 -0.86415237
9.8683224 -21.347586 -0.99952596
21.27577 -21.360321 -0.97061229
26.411499 -21.009102 -0.89985543
26.765242 -21.411352 -0.79392964
35.816597 -21.358273 -0.94442081
-94.211334 -20.953783 -0.76882124
-93.784317 -20.95277 -0.96682566
-93.186554 -20.731045 -0.94455409
-92.49115 -20.572746 -0.81109512
-91.476837 -20.644392 -0.98039061
-90.295982 -20.623484 -0.77297497
-54.935471 -20.710217 -0.88191587
-53.843464 -20.794844 -0.83638954
-53.342735 -20.827856 -0.94837248
-52.848942 -20.563501 -0.89354986
-52.289101 -20.782801 -0.85501009
-50.695538 -20.622375 -0.83116299
-50.427879 -20.757139 -0.83528417
-49.833511 -20.670643 -0.78839904
-47.635445 -20.556324 -0.83240277
-46.009956 -20.700733 -0.82351631
-44.726624 -20.54541 -0.69142532
-44.394241 -20.564554 -0.92505914
-43.754471 -20.938133 -0.61617362
-43.317871 -20.839895 -0.71464372
-42.761703 -20.668785 -0.716995
-42.087677 -20.913363 -0.65227056
-41.725155 -20.764551 -0.76049781
-41.269325 -20.971558 -0.60704839
-40.302795 -20.834164 -0.6726895
-39.600189 -20.70121 -0.64383972
-27.244476 -20.700947 -0.89737177
-26.946842 -20.732019 -0.9408384
-25.385567 -20.737509 -0.65861475
-23.86409 -20.950346 -0.83399421
-23.077423 -20.864941 -0.86392653
-22.674229 -20.97982 -0.97048181
-21.69256 -20.719784 -0.82107943
-21.30312 -20.713081 -0.77771872
-20.729786 -20.713846 -0.7568115
-20.263081 -20.774738 -0.73882973
-19.786957 -20.58588 -0.75473946
-19.260143 -20.75284 -0.69431198
-18.61825 -20.751591 -0.74438846
-17.710817 -20.954662 -0.7266562
-16.11541 -20.833916 -0.53307301
-15.694283 -20.640299 -0.6809594
-15.016233 -20.924265 -0.96517867
-14.838953 -20.887377 -0.85865527
-14.19253 -20.705814 -0.77157086
-13.848566 -20.783306 -0.55322379
-13.084686 -20.818535 -0.69943827
-12.828374 -20.708637 -0.77457476
-12.215913 -20.598587 -0.61886173
-11.787185 -20.820219 -0.83461261
-10.645534 -20.900702 -0.69477898
-10.254678 -20.71476 -0.58000237
-9.6581974 -20.962955 -0.65542001
-9.2921505 -20.716417 -0.62762123
-8.226388 -20.874975 -0.62724119
-7.6408882 -20.855366 -0.71235108
-7.3642197 -20.788754 -0.72681296
-6.7215109 -20.970436 -0.78995216
-6.0422511 -20.704744 -0.56124926
-5.7406502 -20.607666 -0.78877014
-5.2786751 -20.726126 -0.86377144
-4.5043564 -20.739174 -0.96858358
-4.0962944 -20.575573 -0.78725398
-3.7704628 -20.775042 -0.78034258
-2.8923802 -20.698128 -0.84057778
-2.4654777 -20.974586 -0.95232093
-1.8454452 -20.762264 -0.85471237
9.6199846 -20.879124 -0.91915637
22.784252 -20.699484 -0.78390253
26.119274 -20.807932 -0.95062447
27.16522 -20.648336 -0.88377696
-98.132622 -20.262344 -0.54899287
-92.911484 -20.06498 -0.50659585
-91.029396 -20.28363 -0.83743417
-90.969666 -20.318996 -0.92419219
-90.230202 -20.309641 -0.90980148
-89.354324 -20.201834 -0.76724601
-88.794228 -20.091522 -0.83969277
-88.283493 -20.058855 -0.96091187
-87.964127 -20.294674 -0.97148907
-53.6772 -20.051056 -0.8956213
-53.32489 -20.266371 -0.82584488
-52.788151 -20.386297 -0.76840574
-52.231461 -20.308584 -0.81040096
-51.727825 -20.18605 -0.93425626
-51.092587 -20.312717 -0.81002653
-50.153206 -20.314156 -0.82205522
-47.247471 -20.388731 -0.66180843
-46.142601 -20.420685 -0.81187427
-45.422672 -20.48724 -0.79819
-44.574703 -20.127956 -0.8112849
-44.299301 -20.215008 -0.79987955
-43.29361 -20.200478 -0.78261894
-42.553288 -20.495384 -0.78094876
-42.385262 -20.478912 -0.74552453
-41.821053 -20.071587 -0.83948386
-41.267532 -20.371756 -0.71408969
-40.238247 -20.471397 -0.66187984
-39.6782 -20.399151 -0.73563474
-39.298355 -20.334951 -0.72093564
-38.151978 -20.174223 -0.50364125
-37.421169 -20.257414 -0.75990713
-36.83894 -20.417715 -0.63967806
-36.460587 -20.303972 -0.62799257
-26.888647 -20.383484 -0.81594419
-25.963312 -20.213112 -0.85191476
-25.459589 -20.459322 -0.53600109
-23.410288 -20.179331 -0.95606947
-21.133183 -20.247427 -0.77228284
-20.863346 -20.41758 -0.77771354
-20.094584 -20.204708 -0.71140712
-19.840437 -20.207802 -0.86394691
-19.365042 -20.275055 -0.74411875
-18.582109 -20.299847 -0.97514659
-17.64393 -20.399103 -0.77509898
-16.625 -20.300179 -0.71393037
-16.374882 -20.053509 -0.87136364
-15.817922 -20.183601 -0.861449
-15.065639 -20.347689 -0.84024942
-14.795657 -20.195469 -0.7554903
-14.162843 -20.173571 -0.7588554
-13.733972 -20.278811 -0.70667964
-13.286148 -20.286921 -0.74961215
-12.736847 -20.28853 -0.85794103
-12.335855 -20.220507 -0.64823514
-11.660487 -20.211929 -0.63390577
-11.379106 -20.232843 -0.81018645
-10.56769 -20.079655 -0.67479342
-9.1489038 -20.205235 -0.75795001
-8.8572731 -20.142855 -0.77295285
-8.1078119 -20.215643 -0.79963219
-7.6012936 -20.348293 -0.64254862
-7.1021304 -20.394512 -0.69152135
-6.8102736 -20.199535 -0.84293413
-6.3898964 -20.015156 -0.93584394
-5.8136668 -20.196093 -0.81413597
-5.1188087 -20.256615 -0.81506807
-4.6795845 -20.274113 -0.87528718
-4.4171166 -20.418276 -0.90530998
-3.8625019 -20.184446 -0.83659315
-3.085058 -20.077749 -0.72760642
-2.9011762 -20.14827 -0.87822765
7.8020592 -20.018578 -0.85266089
8.1564789 -20.27787 -0.677495
27.589886 -20.153309 -0.95621717
34.740753 -20.336063 -0.89580703
-91.416046 -19.682549 -0.5752883
-90.519859 -19.764547 -0.52902693
-89.358292 -19.933765 -0.77816337
-86.731583 -19.753798 -0.92038077
-86.113075 -19.508595 -0.75989884
-85.610443 -19.598511 -0.92437887
-52.646301 -19.629871 -0.9393298
-52.337372 -19.515518 -0.90379679
-51.959663 -19.942455 -0.98653996
-51.347763 -19.877846 -0.88498861
-50.853794 -19.907455 -0.88496333
-50.105789 -19.940376 -0.77791095
-49.857761 -19.68745 -0.91340297
-49.317265 -19.846136 -0.81217778
-48.796009 -19.515684 -0.64521271
-48.327957 -19.875519 -0.69288069
-47.817917 -19.840429 -0.91309434
-47.093536 -19.701899 -0.70945603
-42.515541 -19.572441 -0.78079921
-41.297882 -19.564478 -0.89222246
-37.867847 -19.976305 -0.6756832
-36.963268 -19.566187 -0.5973714
-35.070347 -19.843296 -0.59607691
-33.659 -19.70838 -0.6150524
-22.601929 -19.66835 -0.84630656
-22.293623 -19.868616 -0.7801764
-21.736982 -19.776915 -0.94623542
-21.350111 -19.856255 -0.95153809
-19.865536 -19.75552 -0.71274787
-18.618204 -19.678789 -0.95167375
-18.353035 -19.816006 -0.68795723
-17.164724 -19.585421 -0.72428644
-16.788448 -19.629339 -0.78530657
-16.079378 -19.825413 -0.6576342
-15.84833 -19.795938 -0.78423613
-15.245863 -19.94099 -0.78901452
-14.766269 -19.92169 -0.78648454
-14.237 -19.840876 -0.65634644
-13.974416 -19.693111 -0.56368613
-13.262312 -19.753824 -0.70973098
-12.678467 -19.914991 -0.78910255
-11.591876 -19.656523 -0.73838586
-11.182956 -19.808825 -0.67419004
-10.95161 -19.845562 -0.66939396
-10.247614 -19.80942 -0.66286469
-9.7809544 -19.696581 -0.7715655
-9.2786789 -19.622526 -0.83270377
-8.2847252 -19.849859 -0.82563436
-7.7903891 -19.694721 -0.71529198
-7.1759839 -19.807999 -0.76686972
-6.6340723 -19.766088 -0.72294515
-6.2827654 -19.846991 -0.82865369
-5.7178516 -19.757177 -0.77684569
-5.3664322 -19.7656 -0.79944962
-4.7517829 -19.734158 -0.79480302
-4.1049371 -19.91781 -0.91636199
-3.8536122 -19.904716 -0.90850097
-3.2299609 -19.918659 -0.88682163
-0.98446846 -19.9501 -0.99027842
9.2312212 -19.581768 -0.53526783
27.133726 -19.537876 -0.91160572
-136.11844 -19.32649 -0.67139244
-100.52214 -19.487062 -0.51352638
-89.700462 -19.353548 -0.5010016
-88.39872 -19.415123 -0.76625544
-85.815094 -19.223083 -0.85608816
-54.936043 -19.419638 -0.74304962
-54.128235 -19.369116 -0.76442516
-53.336342 -19.313156 -0.98605746
-51.492584 -19.433687 -0.96529102
-49.519356 -19.044512 -0.91297227
-49.454788 -19.012573 -0.95791799
-48.717194 -19.382504 -0.83861208
-48.064171 -19.343849 -0.87871718
-46.294224 -19.197613 -0.83475524
-43.775379 -19.073013 -0.88316703
-43.128441 -19.309786 -0.89017171
-42.621384 -19.320137 -0.89151663
-41.070332 -19.120932 -0.9757601
-39.876221 -19.268045 -0.85262036
-37.523357 -19.273224 -0.67293465
-36.784332 -19.258652 -0.63098234
-34.387375 -19.159758 -0.59547549
-33.657852 -19.120661 -0.5552187
-32.599556 -19.041517 -0.62936717
-32.27401 -19.113476 -0.57009
-30.270052 -19.096788 -0.6479736
-22.807394 -19.245266 -0.87476397
-21.581089 -19.254484 -0.80151594
-21.479694 -19.212362 -0.84356093
-20.791502 -19.126535 -0.9107154
-20.075016 -19.14039 -0.97376895
-19.665163 -19.049042 -0.93181086
-19.419495 -19.112238 -0.96489316
-17.552397 -19.435001 -0.73212987
-17.135674 -19.432041 -0.79574138
-16.676422 -19.206676 -0.65626854
-16.165905 -19.016157 -0.73326379
-15.034239 -19.152718 -0.92419606
-14.977019 -19.284065 -0.85936415
-14.204018 -19.144989 -0.8177892
-13.722091 -19.209824 -0.60123467
-13.279152 -19.164345 -0.58752012
-12.7939 -19.261316 -0.64355904
-12.315011 -19.350128 -0.78331506
-11.795328 -19.358957 -0.76828647
-11.436031 -19.402082 -0.75768799
-10.84151 -19.33613 -0.89661926
-10.269535 -19.218643 -0.73903495
-9.7662163 -19.176062 -0.81356883
-9.1043167 -19.239134 -0.67350292
-8.6448812 -19.234095 -0.83217931
-8.4151688 -19.302544 -0.81588078
-7.7936792 -19.32761 -0.76600266
-7.1819816 -19.189989 -0.73945832
-6.6676078 -19.374119 -0.75996643
-6.222446 -19.297348 -0.73230892
-5.7590857 -19.197445 -0.7765553
-5.0091267 -19.412357 -0.91911823
-4.6786227 -19.220827 -0.83009005
-4.3408384 -19.251226 -0.70845026
-3.8053832 -19.137318 -0.66054833
-2.8816698 -19.371094 -0.88354796
-1.8183575 -19.067799 -0.90014315
-1.2962488 -19.371313 -0.95813632
9.2763014 -19.21806 -0.88024074
9.5869675 -19.094303 -0.89230293
12.758644 -19.040375 -0.65745074
26.46792 -19.062729 -0.68505341
26.584152 -19.05006 -0.9210279
27.223183 -19.186541 -0.90473694
27.667315 -19.064552 -0.82226682
-85.651749 -18.598595 -0.50951052
-81.807007 -18.578903 -0.93150479
-81.290497 -18.785786 -0.91049552
-79.904778 -18.770472 -0.83862019
-52.840607 -18.763121 -0.9810167
-52.45578 -18.947701 -0.84230596
-48.141865 -18.708067 -0.95491874
-46.02383 -18.766737 -0.82671791
-45.572643 -18.751308 -0.82683325
-44.699978 -18.803776 -0.81822693
-44.351326 -18.774761 -0.77406365
-42.38332 -18.811962 -0.78869838
-41.447418 -18.824909 -0.93235832
-40.716068 -18.893192 -0.87517005
-40.122047 -18.817173 -0.82453752
-39.919559 -18.633261 -0.94989598
-38.45525 -18.882439 -0.77402693
-37.448509 -18.65341 -0.9499684
-27.790287 -18.758295 -0.5064888
-22.745258 -18.963682 -0.70558739
-22.346607 -18.780445 -0.76566422
-19.530821 -18.887842 -0.96696007
-18.551638 -18.812555 -0.63493359
-16.858717 -18.802103 -0.87436026
-14.300873 -18.977316 -0.92457306
-13.542752 -18.856468 -0.60393709
-13.279521 -18.876451 -0.72368163
-12.14775 -18.866251 -0.98585916
-11.867104 -18.788387 -0.58319467
-11.320739 -18.938204 -0.71203864
-10.799863 -18.849583 -0.88484687
-10.352557 -18.921783 -0.84606797
-9.7312336 -18.673594 -0.81498659
-9.327652 -18.776207 -0.78271377
-8.6416836 -18.806475 -0.76027167
-8.2616205 -18.836647 -0.6648612
-7.7871914 -18.652216 -0.72581345
-7.1506767 -18.832615 -0.66777742
-6.7721348 -18.816336 -0.85981625
-6.3147306 -18.659723 -0.84704363
-5.8261099 -18.910467 -0.81921899
-4.9558554 -18.85812 -0.81062895
-4.1206203 -18.582123 -0.86873633
-3.8267951 -18.555088 -0.92648119
-3.2239156 -18.888552 -0.89970392
8.8308477 -18.620245 -0.98220819
9.162591 -18.692093 -0.88825434
9.5306549 -18.54726 -0.94267213
11.490324 -18.925629 -0.96106571
11.577044 -18.915508 -0.90714574
12.642042 -18.762255 -0.59650296
14.987552 -18.797279 -0.57037914
15.07197 -18.76141 -0.55513901
26.858028 -18.732079 -0.78879452
27.187576 -18.835302 -0.82203418
27.687475 -18.918392 -0.85628855
-83.599251 -18.415821 -0.58386087
-81.872665 -18.275707 -0.7775501
-81.451378 -18.450829 -0.95912939
-80.292984 -18.038321 -0.69770819
-79.629135 -18.252438 -0.61379147
-79.009506 -18.077621 -0.99101794
-76.419998 -18.122019 -0.95130116
-51.620956 -18.434305 -0.85387814
-48.810234 -18.331379 -0.82981247
-45.931614 -18.058601 -0.87410313
-45.156334 -18.475954 -0.95006526
-44.394321 -18.251694 -0.7044273
-43.868938 -18.28603 -0.93042988
-41.935303 -18.474117 -0.88178724
-41.408756 -18.297041 -0.91540855
-40.606972 -18.084862 -0.86169422
-40.449051 -18.097795 -0.84762603
-38.933674 -18.173052 -0.77242398
-37.532753 -18.196793 -0.94467163
-36.908237 -18.007843 -0.94939023
-35.533733 -18.288727 -0.84351635
-34.729321 -18.063099 -0.66935879
-32.785221 -18.317053 -0.99206853
-23.491083 -18.329281 -0.97332215
-21.62512 -18.392393 -0.72187632
-20.5375 -18.17992 -0.99298954
-18.927834 -18.436382 -0.91099203
-15.63619 -18.265665 -0.52119422
-15.055176 -18.49235 -0.6850704
-12.538503 -18.380877 -0.59123665
-10.1468 -18.330894 -0.74839544
-9.8968945 -18.161589 -0.71587539
-9.3466425 -18.366697 -0.80815887
-8.2508125 -18.27323 -0.77193749
-7.752728 -18.267717 -0.81833965
-7.2748995 -18.240608 -0.79392439
-6.8152862 -18.237442 -0.72267461
-6.4816527 -18.050774 -0.98095626
-5.6393108 -18.110542 -0.77109891
-5.264698 -18.265354 -0.86354691
-4.7276444 -18.356949 -0.81536037
-4.1908741 -18.269773 -0.75920528
-3.4004433 -18.487967 -0.97303313
-2.8526509 -18.127977 -0.85664314
-2.3767266 -18.2075 -0.78733045
-1.9683886 -18.065157 -0.96270305
-1.4969409 -18.078058 -0.98686439
1.1329114 -18.13036 -0.88883287
2.4953473 -18.258059 -0.71773523
4.1939759 -18.385351 -0.99916583
11.831297 -18.205875 -0.76968902
15.096123 -18.114916 -0.52569342
20.050201 -18.460869 -0.54747593
26.821306 -18.280983 -0.8369326
27.140459 -18.33514 -0.69655001
30.801105 -18.340664 -0.94126666
-81.646812 -17.921726 -0.62061203
-80.575172 -17.862345 -0.61811042
-80.173851 -17.803135 -0.67829913
-78.059814 -17.758238 -0.7711491
-42.746025 -17.652447 -0.83613735
-41.999687 -17.79217 -0.81463373
-41.285721 -17.74279 -0.81396174
-39.847221 -17.798159 -0.91355276
-39.460567 -17.764141 -0.92713833
-37.81004 -17.57093 -0.9151572
-36.187473 -17.548723 -0.78127891
-35.745564 -17.636677 -0.73119748
-34.837631 -17.516642 -0.68705761
-33.710201 -17.560455 -0.78767055
-33.37468 -17.501001 -0.73530781
-24.861744 -17.539415 -0.58079344
-19.178795 -17.869488 -0.91308522
-11.685843 -17.690887 -0.82996827
-9.7585278 -17.603767 -0.64113402
-9.2398434 -17.852194 -0.62899214
-8.5113544 -17.602436 -0.94342273
-8.4556923 -17.587446 -0.94448584
-7.36589 -17.633198 -0.85821772
-6.9137702 -17.557995 -0.73085517
-6.33392 -17.686436 -0.81569403
-5.9659281 -17.621628 -0.74421722
-4.431726 -17.870359 -0.78056771
-3.003432 -17.881712 -0.92750227
-2.8030474 -17.823364 -0.94197339
-1.018133 -17.82094 -0.97818327
-0.88538051 -17.857414 -0.97713226
11.785265 -17.605215 -0.81693935
15.128985 -17.837967 -0.55582076
21.16061 -17.713839 -0.99951732
26.838446 -17.793507 -0.82637334
27.073933 -17.742653 -0.79444331
30.525644 -17.997377 -0.9320839
31.532032 -17.505268 -0.99434304
-77.378937 -17.403734 -0.78607684
-76.541512 -17.38909 -0.82908762
-76.234627 -17.176256 -0.54029799
-75.848656 -17.137583 -0.93025106
-75.191498 -17.131609 -0.78184813
-43.63945 -17.460697 -0.90111369
-43.415936 -17.263073 -0.89009768
-40.292316 -17.426414 -0.74724096
-39.982857 -17.299398 -0.94773662
-39.043839 -17.097708 -0.91677749
-38.784061 -17.248093 -0.89869976
-37.84391 -17.304003 -0.75044858
-36.957237 -17.117142 -0.76079547
-36.269203 -17.349529 -0.8996191
-35.9058 -17.215277 -0.86351544
-34.260426 -17.173872 -0.87960023
-33.984009 -17.040577 -0.86999732
-33.28476 -17.485609 -0.77983457
-32.625225 -17.382431 -0.79798341
-32.213123 -17.248064 -0.77964437
-30.884283 -17.367224 -0.68290257
-26.135025 -17.022884 -0.81951058
-11.513399 -17.069971 -0.85559601
-11.247704 -17.357763 -0.8217327
-10.120513 -17.27302 -0.69210613
-9.2759953 -17.101931 -0.84904003
-8.5260792 -17.407589 -0.9421339
-8.3363237 -17.34955 -0.86551785
-7.1464729 -17.45442 -0.77175522
-6.8810253 -17.375443 -0.81567347
-6.3838377 -17.436472 -0.98173118
-4.3642354 -17.412079 -0.89395499
-3.8447227 -17.360369 -0.9756372
-3.220917 -17.378788 -0.91958779
-2.0853677 -17.433212 -0.97928721
1.3924707 -17.019188 -0.98835593
2.2288127 -17.481392 -0.94788808
2.6951199 -17.124878 -0.97894639
7.6161504 -17.187206 -0.72619474
8.7750502 -17.158178 -0.78698254
9.3824625 -17.171438 -0.7575438
14.923436 -17.185469 -0.66770446
15.067535 -17.292713 -0.72421771
26.836393 -17.218058 -0.76032704
27.163366 -17.288 -0.7082023
29.18041 -17.356504 -0.90733129
31.55908 -17.482618 -0.97980452
-76.974289 -16.578587 -0.55815977
-40.297272 -16.908144 -0.82578313
-39.545807 -16.604107 -0.81927633
-37.447044 -16.868662 -0.84376687
-36.194622 -16.771912 -0.79472518
-34.717785 -16.846514 -0.87104088
-34.308144 -16.668489 -0.7503643
-33.869705 -16.845469 -0.83334839
-33.420662 -16.763868 -0.84468722
-32.614189 -16.942352 -0.81604356
-31.412788 -16.798098 -0.81154728
-30.556511 -16.66456 -0.56208354
-30.267204 -16.715094 -0.61005527
-29.208488 -16.670135 -0.55626166
-27.22937 -16.992268 -0.5412603
-25.992517 -16.927345 -0.84586215
-24.869093 -16.936586 -0.59035367
-11.276991 -16.902164 -0.93218267
-8.7264557 -16.98119 -0.8474555
-7.6871772 -16.675024 -0.95464218
-5.7222586 -16.554672 -0.85373807
-3.8333914 -16.581417 -0.86223668
-2.9925907 -16.538898 -0.97366416
-1.6701055 -16.869131 -0.69192523
-1.489091 -16.84495 -0.75017232
0.094855227 -16.811596 -0.95246255
2.7659063 -16.619997 -0.9344514
3.0263591 -16.641903 -0.99741346
8.3454781 -16.821541 -0.70148516
8.8132162 -16.870447 -0.91085786
9.2568207 -16.710541 -0.97903991
11.235828 -16.644896 -0.89857572
14.905321 -16.670433 -0.6206975
15.105296 -16.828716 -0.65568876
25.942444 -16.883755 -0.89603537
26.081562 -16.834337 -0.85911775
26.792957 -16.798845 -0.88539612
-77.286972 -16.490139 -0.50154579
-72.834122 -16.407726 -0.97171557
-42.017094 -16.254995 -0.85383558
-37.357056 -16.012495 -0.97249448
-35.808979 -16.38398 -0.9081791
-34.712372 -16.059998 -0.71709889
-34.16954 -16.212393 -0.86913979
-33.913979 -16.434486 -0.76793671
-33.12009 -16.34717 -0.88052303
-32.705578 -16.088039 -0.75430298
-32.207409 -16.433176 -0.57960302
-31.898216 -16.126642 -0.70972526
-31.129539 -16.052725 -0.80156344
-30.674614 -16.300083 -0.70546395
-30.175598 -16.087051 -0.74946338
-29.468925 -16.410231 -0.86115819
-28.796801 -16.128681 -0.68848109
-27.647255 -16.295591 -0.66174734
-27.233679 -16.380951 -0.58635312
-26.72341 -16.264072 -0.64806706
-26.310612 -16.137001 -0.77154815
-25.009668 -16.147079 -0.57808805
-24.900133 -16.143509 -0.66445541
-19.783705 -16.209187 -0.52126837
-7.1991978 -16.4083 -0.9157111
-3.9299512 -16.454119 -0.96979612
1.1036744 -16.280174 -0.99632812
6.7151151 -16.366602 -0.59657931
7.1882367 -16.235403 -0.91254377
7.6531291 -16.19257 -0.83505374
8.2624531 -16.427538 -0.70971709
8.7473459 -16.315308 -0.72978127
9.2854633 -16.221113 -0.812796
9.5101738 -16.11561 -0.88384175
10.922735 -16.485062 -0.93886226
14.990177 -16.42366 -0.52436596
15.107934 -16.345501 -0.59968293
26.253681 -16.402632 -0.93879032
26.943752 -16.14249 -0.98117661
-98.807182 -15.809152 -0.73479801
-94.84333 -15.586755 -0.68084031
-70.778122 -15.643331 -0.70022511
-34.732071 -15.780623 -0.82974607
-31.782293 -15.808751 -0.73920089
-31.159081 -15.845753 -0.697101
-30.715691 -15.583691 -0.68204623
-30.332769 -15.671206 -0.8080883
-29.901251 -15.900846 -0.62778842
-29.301954 -15.579462 -0.69696611
-28.596663 -15.632579 -0.6545673
-28.416605 -15.684446 -0.60643858
-27.164 -15.759194 -0.79084229
-26.549488 -15.541588 -0.83774447
-26.263996 -15.675631 -0.72134721
-21.755884 -15.646394 -0.65065467
-6.7834296 -15.941353 -0.91154611
-3.0192006 -15.913205 -0.84925801
-2.0618825 -15.760009 -0.86902177
7.2763424 -15.598291 -0.72244257
7.6848884 -15.585238 -0.75418156
8.4678259 -15.557341 -0.69378644
8.6800346 -15.698648 -0.66934824
9.2819042 -15.933529 -0.66715902
11.72744 -15.595676 -0.88949329
14.885 -15.691389 -0.84959489
15.133891 -15.783626 -0.67500824
25.896076 -15.847633 -0.85025972
-96.201881 -15.077291 -0.68187755
-70.637749 -15.222824 -0.56857306
-68.936394 -15.341921 -0.69982779
-35.240891 -15.377501 -0.78352624
-34.733543 -15.353141 -0.86775243
-30.609209 -15.409344 -0.77671856
-29.79302 -15.260837 -0.84583771
-29.192015 -15.372172 -0.654432
-28.912806 -15.28613 -0.63538951
-28.17524 -15.087063 -0.71758956
-27.686796 -15.103668 -0.70587844
-27.235243 -15.085916 -0.73470742
-24.300056 -15.435544 -0.74144232
-23.96237 -15.425888 -0.59214681
-23.273457 -15.279666 -0.80282229
-22.774323 -15.418523 -0.52034962
-22.411964 -15.419813 -0.70143789
-21.033188 -15.329728 -0.52967799
-20.822496 -15.207493 -0.54261297
-18.634132 -15.223625 -0.64700413
7.2512183 -15.209671 -0.90770727
7.7503443 -15.267458 -0.79193658
8.2533684 -15.24586 -0.66922575
8.6004581 -15.163376 -0.71301252
11.445375 -15.123085 -0.89285004
11.652729 -15.267706 -0.85812902
12.106618 -15.358905 -0.80646616
13.334895 -15.36194 -0.58861446
14.748309 -15.262451 -0.59874696
15.102357 -15.116621 -0.67653716
20.421789 -15.092523 -0.79851037
20.611021 -15.122763 -0.95972615
26.35763 -15.332107 -0.74324244
26.590448 -15.31216 -0.97480381
-103.23518 -14.814848 -0.98298806
-96.068634 -14.714003 -0.68295681
-95.694305 -14.728055 -0.68979746
-91.813049 -14.706013 -0.52579433
-91.343346 -14.544231 -0.72408092
-68.800003 -14.937814 -0.55531013
-31.63253 -14.930548 -0.849343
-30.447592 -14.926802 -0.59059411
-29.688023 -14.755592 -0.90296125
-29.402491 -14.735611 -0.69229835
-28.157291 -14.935728 -0.86399347
-27.691519 -14.726861 -0.62794763
-27.376337 -14.935738 -0.8592124
