# .PCD v0.7 - Point Cloud Data file format
VERSION 0.7
FIELDS x y z
SIZE 4 4 4
TYPE F F F
COUNT 1 1 1
WIDTH 280
HEIGHT 1
VIEWPOINT 0 0 0 1 0 0 0
POINTS 280
DATA ascii
-0.34255078 -143.5956 -26.622065
9.0468206 -47.253025 -18.145607
-68.686485 -211.34914 -1.0186687
-34.584248 -210.21844 -0.088883698
-69.238892 -206.01584 -1.8320786
-54.222561 -207.14003 -0.42941666
-34.319389 -205.61765 -0.15663388
-28.305449 -202.06554 -1.7799705
1.9638169 -200.88182 -0.15419164
-71.241302 -192.13455 -1.3826396
-66.624092 -190.59769 -1.2958241
-54.226334 -193.132 -1.8798664
-42.214443 -192.2756 -1.4701473
-33.787865 -192.58635 -1.5755256
-25.38114 -191.7536 -1.4123331
-15.410332 -191.83334 -1.0097865
-8.7616367 -191.59897 -0.41417336
-71.870338 -188.3201 -1.4163575
-63.78381 -186.47398 -1.3031727
-53.562054 -185.62038 -1.1323192
-44.278996 -185.51485 -1.028492
-34.824989 -185.11591 -1.0211831
-23.914017 -185.12508 -1.0686331
-15.267056 -184.61192 -1.094083
-6.8225098 -183.80991 -1.1810304
2.2397661 -181.61584 -1.3511307
18.882034 -182.14203 -2.2676518
23.595985 -181.8678 -1.1982421
52.19553 -183.74608 -0.7465018
-61.939156 -174.91473 -0.85721052
-53.841511 -176.24826 -0.82423228
-45.23119 -176.57344 -0.76337099
-34.640095 -176.18227 -0.6902824
-22.323694 -176.0489 -0.77685016
-15.037212 -175.27078 -0.93091869
-6.4762349 -174.22955 -1.1193168
3.3338854 -177.60559 -1.1602889
12.831264 -176.21877 -1.3379503
23.318167 -173.17616 -0.97006404
33.2071 -173.64009 -0.64719075
-52.698441 -163.65514 -0.81023735
-44.87495 -167.55292 -0.81123239
-37.240189 -166.43829 -0.67038733
-23.053373 -164.08157 -0.74170387
-15.645863 -165.54608 -0.90840358
-6.5866814 -166.00806 -1.0517273
5.9570384 -166.52795 -0.99970078
13.202734 -163.57643 -1.037811
22.921839 -169.36476 -0.47550043
31.895229 -162.46976 -0.58508414
-53.1745 -156.59357 -0.47069857
-32.865162 -152.67894 -0.69734925
-25.529806 -156.26062 -0.88914686
-15.508507 -157.30972 -1.0546632
-6.0900488 -156.14342 -1.2305213
3.6906159 -156.0912 -1.0908284
15.270202 -158.06493 -1.1416733
22.686666 -151.69817 -0.20247936
31.073835 -152.07782 -1.1612478
-42.532032 -142.82854 -0.74764347
-35.173676 -145.93454 -0.78152615
-27.232956 -146.84981 -0.90004355
-19.159002 -146.72377 -0.92907828
6.2708697 -148.6797 -0.54674721
27.592279 -146.31041 -0.64071727
30.837364 -148.45544 -1.1520754
-51.323711 -136.47664 -0.63754141
-45.926727 -138.54718 -0.80334496
-37.740906 -139.55788 -0.90708899
29.79343 -133.08444 -0.94884956
30.14414 -133.34218 -0.64405024
-61.307457 -120.15648 -0.73084116
-55.452019 -123.64468 -0.66884184
-45.704136 -122.11082 -1.0365984
-39.162834 -121.00043 -1.1993634
28.45182 -127.86044 -0.63594657
33.033588 -122.11715 -2.4334927
-72.700188 -111.16654 -0.9102515
-62.693172 -114.87328 -0.70364964
-55.942528 -115.26416 -1.0306643
-46.943798 -114.81004 -1.2464877
-37.631954 -113.46947 -1.4505041
-71.29882 -102.15092 -0.45539343
-67.09594 -101.54053 -0.44913816
-35.49297 -109.92121 -1.6070917
-28.875259 -108.97603 -1.8667073
27.085279 -101.1389 -1.5550809
-71.998863 -94.503578 -0.42259374
-66.701576 -95.369568 -0.52016985
-57.679176 -94.064606 -0.75361472
-73.13707 -84.732971 -0.37961397
-67.450409 -86.438278 -0.48044348
-59.150711 -83.344269 -0.94785368
18.190062 -88.643112 -1.9823484
-81.96875 -70.791725 -0.33462435
-75.174011 -74.40654 -0.35752806
-67.6437 -75.669785 -0.53931808
-59.069603 -79.851639 -1.0597055
-81.468719 -64.916573 -0.30845341
-73.400536 -67.961021 -0.38250566
-66.182755 -66.53212 -0.54588044
-55.157009 -63.998547 -0.55863863
-45.002399 -61.725948 -0.52509445
-36.172741 -60.622169 -0.63011223
-26.661989 -60.263069 -0.80740368
-12.475286 -60.00964 -1.0285248
-81.65802 -55.194946 -0.38463724
-75.056686 -54.686829 -0.45512977
-67.716576 -53.649246 -0.56535363
-54.446327 -54.760956 -0.57207465
-44.589237 -53.592072 -0.65176302
-33.987438 -56.892975 -0.6013425
-24.935549 -57.024464 -0.77978981
-14.882998 -55.059719 -0.88462675
-5.5872388 -53.271297 -0.92018604
3.743407 -51.578621 -1.132049
11.706315 -52.148006 -1.240898
23.882351 -52.379547 -1.0565027
-132.33627 -43.529507 -1.7366047
-124.91127 -40.914791 -1.2592163
-116.51115 -41.565228 -0.72406507
-90.495483 -40.497246 -0.81966162
-82.0271 -41.408134 -0.46582541
-74.853752 -43.85598 -0.45159009
-65.008926 -46.586388 -0.4679617
-55.06583 -46.726719 -0.40345094
-44.23983 -44.339119 -0.71662843
-34.774281 -43.219536 -0.69071221
-25.946918 -42.651005 -0.66144013
-14.799169 -44.138866 -0.93278545
-3.9135418 -44.360649 -1.1472247
5.3180289 -46.063129 -1.1711936
16.159395 -44.896561 -1.3211714
25.401888 -45.332714 -1.3918494
35.282394 -44.358093 -1.3430338
43.424644 -43.348042 -1.5918665
52.527512 -41.640228 -1.8385133
62.471478 -40.945602 -2.0820029
-140.95667 -31.771149 -1.8097848
-134.21446 -36.521599 -1.3204268
-126.48653 -36.622231 -1.4826587
-112.2925 -33.551872 -1.0950111
-104.18681 -33.106045 -0.78775913
-95.132301 -32.035294 -0.60785258
-85.220795 -33.348404 -0.39683059
-76.009827 -36.488892 -0.44453621
-64.72007 -33.930305 -0.49303123
-55.821102 -33.714462 -0.57577908
-44.731461 -35.432827 -0.70009154
-34.760845 -34.629417 -0.70113641
-24.506203 -34.334408 -0.70427793
-14.611591 -37.304749 -0.81710029
-4.9674096 -35.811138 -0.93828118
5.5782275 -33.848495 -1.1453408
15.626696 -35.543915 -1.3314701
24.907728 -36.416573 -1.4197009
36.487068 -35.013939 -1.4961189
43.197224 -35.031731 -1.6445467
52.665359 -35.600315 -1.9460152
63.013447 -35.570797 -2.3131418
89.821465 -32.843334 -3.0826309
90.207298 -36.495571 -3.1691325
-121.018 -29.992096 -1.402154
-112.26881 -28.895735 -1.1375471
-102.72422 -25.647417 -0.87980074
-93.772545 -25.768381 -0.89028603
-85.540955 -27.72439 -0.50919384
-76.040436 -26.709473 -0.3923153
-64.135666 -24.513361 -0.59024346
-54.441017 -24.395403 -0.66898656
-45.211353 -25.944609 -0.69387579
-34.863575 -25.297947 -0.80297279
-24.92882 -23.592115 -0.78105456
-15.56189 -24.737322 -0.78895396
-5.4280095 -23.99361 -0.95588821
6.4910979 -24.321651 -1.1398222
15.086764 -25.961531 -1.4157887
24.74267 -24.920504 -1.3645128
35.713688 -23.530106 -1.5016705
44.786514 -25.082155 -1.7707262
55.0172 -27.332144 -2.1115692
60.369869 -29.493322 -2.3098426
88.747398 -28.421103 -3.1850495
-136.11844 -19.32649 -0.67139244
-110.22948 -13.932464 -1.2399968
-102.19159 -13.285915 -0.85365885
-94.076233 -14.618117 -0.48649877
-86.773117 -15.233267 -0.39239034
-76.133125 -16.43578 -0.76814687
-68.531334 -15.395586 -0.89261448
-51.973576 -19.45471 -0.93480921
-44.305607 -18.827538 -0.88408917
-34.623383 -17.233318 -0.81843334
-24.85663 -15.520139 -0.79867721
-14.088755 -16.26062 -0.91182351
-5.0135579 -17.453671 -1.0426755
6.0892816 -15.435473 -1.2228879
14.867327 -13.824729 -1.1892004
24.147865 -14.425691 -1.4058135
34.656952 -13.429179 -1.5165223
44.602219 -16.770004 -1.6647928
51.82848 -15.638118 -1.8614497
-103.87008 -9.0727482 -0.93101966
-93.352463 -8.2117748 -0.62935144
-87.202972 -8.2335215 -0.51690054
-62.841873 -7.4065251 -0.95929575
-33.027451 -3.5869248 -1.0322886
-24.461903 -2.3179932 -0.81417441
-13.931471 -2.6077249 -0.54133862
-4.1151438 -7.8550954 -1.3198782
5.9678001 -7.2814484 -1.2789752
15.012944 -6.2744675 -1.2505425
23.719322 -5.6069789 -1.4369277
34.492416 -7.8343697 -1.6716315
42.276779 -8.0587549 -1.6370313
52.637131 -6.2792988 -2.1504641
-79.326317 2.9415293 -0.76902777
-14.527057 0.32688081 -0.8901701
9.1113768 2.8825896 -0.67862421
19.648735 0.78517944 -1.9261945
24.791721 1.0025998 -1.5979778
32.130344 3.2755318 -1.7660108
51.782955 12.845925 -0.47098389
-68.700172 -211.68336 2.1018779
-53.281792 -210.57918 0.16046125
-30.156805 -211.37283 0.1405192
-69.588005 -205.85716 1.3766575
-42.785534 -205.0692 0.30165941
-33.006195 -203.14282 1.0732682
-27.783352 -201.81837 2.0160334
-14.295287 -202.41118 1.2931048
-6.3864288 -201.00775 1.39299
1.6151637 -200.54553 0.46057326
-31.744453 -199.73201 0.32842499
-23.957502 -198.75661 0.7663933
-14.439487 -197.18356 0.76182276
-5.2820096 -196.5865 1.0288981
5.3294439 -194.29897 1.2244015
11.521664 -193.30402 1.6593275
-40.998104 -187.36884 0.273323
25.514923 -181.95297 2.1732869
52.382233 -186.05701 0.1156938
24.46554 -176.42188 0.75013942
33.21764 -173.47725 0.54416281
23.235376 -168.65953 0.30230021
32.367649 -165.09305 1.1826844
23.250755 -151.59511 0.81393635
22.928957 -148.71257 0.82859957
29.96413 -132.93088 2.2353163
-78.292122 -102.57175 1.8325766
-75.394188 -70.324471 0.082542755
-72.586906 -68.197098 0.049253676
15.249092 -67.870117 2.8801632
-2.5725772 -58.631329 2.3544853
14.530584 -52.212502 1.6988068
23.392685 -51.652779 0.79352212
14.987549 -45.326351 3.1470201
23.236073 -46.190678 1.4334798
-100.27372 -33.268845 0.088073924
-99.735909 -34.364346 0.11027776
-86.413872 -31.452444 0.038098317
13.826653 -36.500404 4.1346869
21.254585 -31.999508 1.0334792
-134.69051 -24.581734 1.5658902
-77.390648 -28.776712 0.10143479
16.797972 -23.860992 3.5220983
20.544731 -26.668234 1.1758794
-92.234993 -16.928133 2.5563226
-87.326157 -16.377726 0.11378813
-77.41375 -13.228705 1.1428581
6.5947938 -14.696222 0.82172358
16.223555 -15.301012 1.4067379
20.849247 -16.299128 1.8793001
-78.139984 -7.7178416 1.5841241
-29.185818 -3.7257559 1.1362838
-14.363266 -2.9862564 0.060292013
-9.0312281 -2.0633492 0.10957581
14.874065 -6.6483521 1.893522
20.944456 -7.1270394 0.8531599
51.222965 14.162051 0.42462683
