# .PCD v0.7 - Point Cloud Data file format
VERSION 0.7
FIELDS x y z normal_x normal_y normal_z curvature
SIZE 4 4 4 4 4 4 4
TYPE F F F F F F F
COUNT 1 1 1 1 1 1 1
WIDTH 591
HEIGHT 1
VIEWPOINT 0 0 0 1 0 0 0
POINTS 591
DATA ascii
-76.609375 -59.113983 -0.38208649 -0.025787646 0.047566768 0.99853516 0.0211068
-74.570175 -59.311474 -0.33184692 0.0019121361 -0.011409184 0.99993306 0.013974724
-74.395195 -59.384583 -0.34131378 0.013246228 -0.0044587264 0.99990231 0.0081541371
-73.126022 -59.239769 -0.38896698 0.035629902 -0.02180035 0.99912727 0.00860349
-82.493584 -59.089279 -0.18926319 0.089565694 -0.027169546 0.99561024 0.00011930041
-81.552376 -59.064384 -0.26043722 -0.054645516 -0.10956829 0.99247605 0.0027145683
-81.251266 -58.861618 -0.20932415 -0.018377442 -0.020186722 0.99962729 0.0041465014
-80.990616 -59.04776 -0.20971063 0.077607512 -0.042658713 0.99607092 0.0048749032
-79.899185 -58.888882 -0.33749765 0.045689639 -0.039153863 0.99818808 0.010820116
-79.007927 -58.887383 -0.35245252 0.047858387 0.081788301 0.99550003 0.024679327
-78.618507 -58.984051 -0.34335533 0.12369911 0.12027298 0.98500401 0.030578341
-76.194687 -58.876389 -0.37208578 0.020098178 0.023531217 0.99952108 0.030804301
-75.572639 -59.047436 -0.40087235 -0.028256424 -0.019736359 0.99940586 0.030136172
-75.160522 -58.904694 -0.35405755 -0.07173603 -0.049715243 0.99618387 0.018510228
-74.993721 -59.066132 -0.34267062 -0.055906422 -0.0088359779 0.99839693 0.01982576
-74.678642 -58.992157 -0.31769717 -0.0045558685 -0.019545907 0.9997986 0.016411025
-81.892731 -58.662933 -0.22454399 0.0077959481 -0.0064078309 0.9999491 0.0026899732
-81.579109 -58.642738 -0.21838197 -0.057572659 -0.019932676 0.9981423 0.002655355
-81.041786 -58.710812 -0.21183687 0.057633501 0.014904362 0.99822652 0.0036104119
-75.964851 -58.668102 -0.39830446 -0.010213812 -0.0004237807 0.99994773 0.027792225
-75.643044 -58.718876 -0.39106855 -0.059689749 -0.021303715 0.99798959 0.02784211
-75.589745 -58.76199 -0.39218873 -0.065650493 -0.022894276 0.99757999 0.026595201
-74.973961 -58.647202 -0.30875635 -0.038824424 -0.022088705 0.99900186 0.017070942
-74.427727 -58.75069 -0.33694527 0.052146286 0.006853818 0.99861592 0.0042156628
-33.888741 -58.778103 -0.50623763 0.11012639 0.036464561 0.99324846 0.025808064
-83.369247 -58.323765 -0.21390554 0.029129103 0.040447913 0.99875695 0.028430305
-81.932617 -58.432446 -0.22603272 -0.058648251 0.075777158 0.99539852 0.0029481922
-81.287727 -58.312405 -0.21732336 0.007245467 0.034963731 0.99936229 0.0031744186
-80.381676 -58.322483 -0.30609936 0.074705489 0.016246654 0.99707329 0.0050932276
-78.511414 -58.281525 -0.50562489 0.086540036 -0.0074302731 0.99622065 0.038693387
-76.579681 -58.314137 -0.42065415 -0.066461444 0.052755561 0.99639338 0.024980851
-75.797356 -58.329639 -0.37045029 -0.062421273 0.024084289 0.99775928 0.027899399
-75.356094 -58.277378 -0.33628345 -0.057125378 0.031765062 0.99786156 0.018135818
-75.259155 -58.262333 -0.32775977 -0.052018527 0.02553793 0.99831951 0.017199572
-74.553284 -58.269306 -0.33121982 0.040627915 0.044986822 0.99816108 0.0037329495
-81.947021 -58.071331 -0.25897211 -0.014224649 0.065128855 0.9977755 0.001419674
-81.838371 -58.023006 -0.25931394 -0.018640762 0.068600692 0.99747002 0.001419674
-79.504257 -57.937481 -0.41274938 0.11288767 -0.1385113 0.98390597 0.032857291
-75.151665 -58.145683 -0.3353222 -0.041096568 0.062853083 0.99717629 0.011061016
-74.936951 -57.944965 -0.35158154 -0.0007897875 0.071519993 0.99743885 0.0079860752
-83.546829 -57.775131 -0.16759357 0.80380952 0.12511416 0.58158118 0.017135773
-82.9515 -57.86964 -0.16944242 -0.1824625 0.21612878 0.95916408 0.012594503
-81.455124 -57.80463 -0.26014522 -0.0065142973 0.088197485 0.99608171 0.0013074507
-81.000748 -57.876976 -0.25750932 0.037248582 0.070924275 0.996786 0.0022886083
-80.469078 -57.816261 -0.28130481 0.05872637 0.049220618 0.99705994 0.013502833
-79.675209 -57.878273 -0.37238339 0.1056832 -0.087910235 0.99050635 0.039666377
-83.000031 -57.501045 -0.29562733 0.0047992989 0.33016598 0.94391072 0.0076110191
-82.535858 -57.513775 -0.24136958 -0.030323574 0.22893013 0.97297043 0.0041010389
-79.27906 -57.317299 -0.32129434 -0.017028114 -0.02942713 0.99942189 0.031763583
-79.028572 -57.393295 -0.31826711 0.048446935 -0.065282173 0.99669009 0.029543007
-78.849854 -57.438225 -0.33526081 0.056738101 -0.034556396 0.99779087 0.022027262
-73.132576 -57.400879 -0.37689334 0.025878718 0.0055077686 0.99964994 0.003522173
-83.632889 -57.140137 -0.22021133 0.84210372 0.061008595 0.53585374 0.0086442279
-81.41935 -57.276428 -0.30640888 0.034622829 0.10833402 0.99351144 0.0041327951
-79.95549 -57.200321 -0.38553002 -0.016335849 0.073071361 0.99719292 0.018982977
-79.78788 -57.106853 -0.38861749 -0.050825935 0.067333087 0.99643517 0.02172232
-79.606972 -57.005497 -0.37346476 -0.06311027 0.0627537 0.99603164 0.018889308
-74.849243 -56.961662 -0.38926548 0.039447688 -0.0070868544 0.99919653 0.0073323296
-73.204994 -56.920574 -0.3756642 0.026790142 0.045701671 0.99859583 0.0046738721
-83.520271 -56.413551 -0.26124305 0.0039325822 0.073546633 0.99728405 0.002570868
-82.781441 -56.49044 -0.21267959 -0.0021259335 -0.0016071309 0.99999642 0.0029428026
-81.876511 -56.583801 -0.30798933 0.18591113 -0.0078726225 0.982535 0.011079114
-79.795158 -56.622395 -0.41488031 -0.17186968 0.020653341 0.98490316 0.029294819
-79.738548 -56.601009 -0.39149183 -0.21082023 -0.015144206 0.97740752 0.030852018
-79.487167 -56.545269 -0.37542519 -0.038218908 -0.0051830849 0.99925596 0.0197246
-78.616402 -56.620926 -0.38274246 0.038692441 0.0091558425 0.99920923 0.0075074029
-81.726166 -56.186985 -0.27375665 0.17293066 -0.14865251 0.97365159 0.028328568
-82.933746 -56.035965 -0.19234709 -0.093788333 -0.54149669 0.835455 0.0038844226
-82.174828 -56.008278 -0.22353236 0.087699145 0.045779482 0.99509454 0.010604828
-79.60321 -55.873089 -0.33523279 -0.047733977 0.017299706 0.99871027 0.017522676
-81.217316 -55.578442 -0.27867275 0.09199769 0.10955916 0.98971373 0.013817294
-84.212296 -55.416481 -0.39141905 0.065106906 0.017694453 0.99772137 0.013798043
-79.580444 -55.481289 -0.35185805 -0.024136003 0.068040423 0.99739057 0.01725743
-79.277817 -55.347221 -0.37612256 0.056163549 0.094236262 0.99396437 0.0094832145
-78.214874 -55.341019 -0.4379434 -0.014549145 0.10363821 0.99450862 0.0088941073
-82.801064 -54.97971 -0.27851182 0.081943221 0.33438769 0.93886644 0.0084611587
-85.067062 -54.746315 -0.29313374 -0.015931768 0.36171597 0.93215221 0.0054668169
-84.275421 -54.723896 -0.31253284 0.028427776 0.091735259 0.99537754 0.027090693
-83.80513 -54.60952 -0.39706647 0.03678957 0.15024908 0.98796344 0.029232403
-82.323395 -53.938057 -0.40523651 0.09040755 -0.041320309 0.99504727 0.0094602183
-74.147614 -53.41703 -0.51749867 0.0107435 0.056591719 0.99833959 0.015748413
-82.863258 -52.552803 -0.27983156 0.22375444 0.28889427 0.93084586 0.0091417981
-79.240547 -52.774361 -0.4760873 0.031886306 -0.055741385 0.99793595 0.012879292
-76.652061 -52.191425 -0.4299255 -0.018412838 -0.066222131 0.99763501 0.0085736345
-74.181969 -52.170219 -0.4327403 -0.013173884 -0.045352533 0.9988842 0.013861042
-77.950317 -51.659874 -0.38322669 0.027423196 -0.031860285 0.99911606 0.0067905351
-76.30217 -51.838722 -0.38752443 0.019736513 -0.084470063 0.99623054 0.0086660422
-75.950027 -51.789822 -0.39981037 0.036366913 -0.093542345 0.99495089 0.010642212
-78.906403 -51.458729 -0.3475886 0.049308166 -0.070330352 0.99630433 0.016841223
-76.993088 -51.406769 -0.38549268 -0.017787982 -0.038784586 0.99908924 0.0094109112
-76.518356 -51.29858 -0.35596955 -0.026058013 -0.045132656 0.99864107 0.0085810591
-38.155712 -51.569794 -0.43773717 -0.017173808 -0.061117839 0.9979828 0.036856066
-75.74482 -51.041191 -0.35004053 0.059132695 -0.036376245 0.99758714 0.012517285
-75.579712 -51.223763 -0.38431337 0.071406513 -0.077139556 0.99445993 0.011591822
-73.346161 -51.022682 -0.45129198 -0.020395974 -0.068593495 0.99743617 0.0096152201
-79.295898 -50.898693 -0.3278583 0.073576249 -0.032505002 0.99675971 0.007724443
-76.37027 -50.941311 -0.34948155 -0.023949504 0.0029379777 0.99970883 0.0078878086
-75.433403 -50.964256 -0.36703563 0.067479037 -0.055778276 0.99616033 0.012749534
-74.77964 -50.812626 -0.40275487 0.040126964 -0.033942107 0.99861795 0.014688924
-71.965836 -50.888794 -0.47320533 0.068775408 -0.10496923 0.99209446 0.022918219
-78.190239 -50.621113 -0.35661584 0.027199863 -0.043100286 0.99870044 0.0074486486
-76.600311 -50.529434 -0.34875384 -0.049161591 0.0096171005 0.99874455 0.0093067447
-76.218689 -50.542831 -0.34720761 -0.01510613 0.0010663903 0.99988532 0.010580781
-75.985909 -50.575294 -0.34143335 0.018576114 -0.0069892644 0.99980301 0.0090656709
-72.727058 -50.432785 -0.40036413 -0.003450409 -0.0060794125 0.99997556 0.011763238
-67.334854 -50.642124 -0.53867453 -0.11429484 -0.12901832 0.98503351 0.046423726
-37.022594 -50.513802 -0.34686536 0.065768875 -0.18023115 0.98142302 0.03001673
-36.900326 -50.47028 -0.37399232 0.095583506 -0.073425695 0.99270964 0.021184506
-79.671921 -50.18935 -0.26898503 0.78626847 -0.37373644 0.49203962 0.011612426
-72.098183 -50.35516 -0.41484073 0.087646298 0.040918097 0.9953109 0.021503026
-67.400627 -50.09948 -0.4900893 -0.15910739 -0.10676869 0.981471 0.037082978
-66.206055 -50.149708 -0.44586393 -0.11251548 0.00065913022 0.99364978 0.058390789
-63.861351 -50.170513 -0.34165832 0.018762959 -0.023659887 0.99954396 0.040170863
-79.526894 -50.040161 -0.2444988 0.05699962 -0.50743914 0.85980028 0.01053181
-76.627029 -49.860718 -0.35367253 -0.017260849 0.084391072 0.99628317 0.013715045
-75.909439 -49.910538 -0.35448724 0.042733755 0.054314259 0.99760902 0.0076141171
-66.837959 -49.870068 -0.47050744 0.015215842 0.01834517 0.99971592 0.047083445
-77.812317 -49.631161 -0.2760722 0.19325015 -0.15911017 0.96816236 0
-71.059784 -49.639297 -0.51662672 -0.0018041343 -0.032271557 0.99947751 0.018956341
-68.594109 -49.75423 -0.44999436 0.01396581 -0.012231253 0.99982768 0.028101357
-65.902214 -49.785168 -0.41265839 0.025966834 0.065055184 0.99754375 0.041722607
-65.628311 -49.729565 -0.41012463 0.0049927342 -0.020438256 0.99977863 0.040202938
-64.713608 -49.493267 -0.39567438 -0.077993736 -0.10410333 0.99150366 0.01860993
-63.583641 -49.549446 -0.45034087 0.10051885 0.010154896 0.99488336 0.033550195
-67.959503 -49.310925 -0.45730713 0.00130187 -0.005539096 0.99998379 0.03955549
-67.338684 -49.342007 -0.42930111 -0.0050198934 0.025150875 0.99967104 0.035955612
-63.700481 -49.478283 -0.43494326 0.099785894 -0.014398578 0.99490476 0.031217568
-74.935089 -48.632942 -0.1887317 0.59346229 -0.76000845 0.26493323 0.0086738151
-66.395454 -48.634972 -0.44056469 0.012758076 0.0085871601 0.99988174 0.021621494
-64.774498 -48.67622 -0.37136957 -0.10020765 0.083489686 0.99145746 0.018490987
-63.88905 -48.635269 -0.37918371 0.01411141 0.087654345 0.99605101 0.036691584
-63.163506 -48.837311 -0.44267827 0.091165237 -0.037260212 0.99513847 0.042289913
-61.303219 -48.820633 -0.36778751 -0.073640816 -0.14113715 0.98724735 0.032434881
-60.941658 -48.778503 -0.34746489 0.03386448 -0.080472335 0.99618143 0.023495782
-64.264633 -48.544483 -0.38330117 -0.011615479 0.13890953 0.99023694 0.031076435
-63.779324 -48.519581 -0.38316414 -0.013371322 0.058200616 0.99821538 0.053793341
-61.986633 -48.522701 -0.42608997 -0.034199517 -0.096953347 0.99470121 0.02608766
-60.851868 -48.378281 -0.36308533 0.087209359 0.0035366288 0.99618375 0.021799816
-58.680523 -48.390881 -0.34420592 0.011288695 0.09070196 0.99581409 0.029328957
-61.716774 -48.034626 -0.39430127 -0.040571183 0.039066859 0.99841261 0.029929424
-60.972218 -48.222111 -0.35440457 0.049124513 0.026766604 0.99843395 0.026835227
-60.146679 -48.008072 -0.4260613 -0.091919258 -0.17337622 0.98055673 0.031712916
-59.391396 -48.16832 -0.36257404 0.0038129771 -0.021190505 0.9997682 0.015167615
-63.046124 -47.877468 -0.3723346 -0.033349901 0.072649263 0.99679983 0.030140735
-62.503639 -47.849609 -0.37696251 0.16335523 -0.063279927 0.98453581 0.038346134
-61.610191 -48.000076 -0.38951278 -0.056112092 0.045918759 0.99736798 0.029929424
-51.056194 -47.752663 -0.28911495 0.28218669 -0.10774824 0.95328957 0.0039770175
-60.11396 -47.567532 -0.3221401 -0.10213991 -0.15057395 0.98330814 0.027750323
-59.989525 -47.604454 -0.2994391 -0.057253901 -0.11389218 0.99184203 0.028208414
-59.50486 -47.569305 -0.35484788 0.11608552 -0.025209839 0.99291927 0.012139297
-54.183155 -47.517693 -0.37456486 0.10681451 -0.096615687 0.98957366 0.016158074
-60.458759 -47.318813 -0.34203452 -0.16555786 -0.1591123 0.97327995 0.028870409
-60.281521 -47.261791 -0.28516486 -0.12433874 -0.11428417 0.98563635 0.025398446
-58.407791 -47.363083 -0.40841568 -0.09535867 -0.025236607 0.99512303 0.046275888
-58.28455 -46.901413 -0.38310659 -0.084794946 -0.0096379099 0.99635184 0.049035944
-50.895912 -46.873322 -0.35950029 0.13813861 0.028058203 0.99001539 0.014862924
-54.308727 -46.736835 -0.34423941 -0.13351634 0.01653311 0.99090868 0.013325318
-54.15976 -46.632149 -0.29947203 -0.17582275 0.020406194 0.98421031 0.016388465
-51.774643 -46.703011 -0.30297011 -0.096400723 0.095454484 0.99075496 0.019699629
-60.6385 -46.426041 -0.18980324 0.2109208 -0.64081228 0.73815453 0.021162856
-60.554504 -46.391098 -0.18418531 0.19964787 -0.51018471 0.83657175 0.027165888
-56.09734 -46.502804 -0.33686334 0.06047681 0.0046291775 0.99815887 0.062842205
-55.675236 -46.415325 -0.4352746 0.22811508 -0.046502378 0.97252303 0.045115199
-53.756943 -46.229141 -0.29778549 -0.050054893 0.10111341 0.99361491 0.015078474
-53.342857 -46.488659 -0.31615594 0.070671961 -0.034817297 0.9968918 0.012908626
-52.018322 -46.283527 -0.30800954 0.014057321 0.041486036 0.99904019 0.015568553
-51.641502 -46.241295 -0.35112321 0.036295399 0.059366591 0.99757618 0.019532133
-58.594769 -46.161427 -0.35020456 0.20410436 -0.69709426 0.68731433 0.092622213
-55.395554 -46.060898 -0.45785567 0.057954587 -0.10691936 0.9925772 0.063708566
-54.172348 -46.035629 -0.3710638 -0.093619958 0.082421765 0.99219048 0.012420635
-53.104721 -46.047989 -0.29921654 0.047102183 -0.047148071 0.99777675 0.015022531
-53.012756 -46.029034 -0.31332123 0.023399804 -0.02033646 0.99951935 0.016092876
-52.638294 -45.965488 -0.33239481 0.038916428 0.003595802 0.99923599 0.011881374
-50.724281 -45.932449 -0.38729307 0.074887022 0.029810198 0.99674636 0.01534067
-50.475586 -45.872513 -0.40629846 0.1025804 0.031059587 0.99423969 0.014274242
-52.960712 -45.412712 -0.34297585 0.068971477 -0.13270721 0.9887526 0.011314533
-51.184105 -45.207207 -0.39177549 0.048756111 0.03449031 0.99821502 0.017269583
-50.648243 -45.079342 -0.45542139 0.10257349 0.047895689 0.9935717 0.025798328
-52.566502 -44.943081 -0.26643977 0.15851794 -0.047788661 0.9861989 0.0038290143
-53.543278 -44.359917 -0.18208395 0.74362177 -0.59637535 0.30226338 0.0042406977
-52.850388 -44.179321 -0.23294176 0.14489424 0.0091104303 0.98940521 0.0025150825
-52.753326 -44.138924 -0.25030026 0.14060482 -0.020037314 0.98986304 0.0021526669
-79.849258 -44.079361 -0.39170772 -0.034477811 -0.036647946 0.99873328 0.013665653
-78.062965 -43.829044 -0.3618727 0.050292581 -0.052409843 0.99735844 0.0056547928
-53.112488 -43.540497 -0.1930753 0.092070557 -0.032312188 0.99522805 0.00035273374
-53.024239 -43.500568 -0.20802353 0.2417229 0.033179212 0.96977788 0.00012394464
-79.956711 -43.483494 -0.36756209 -0.075760297 -0.032753855 0.99658793 0.013348448
-77.881157 -42.782372 -0.37989032 0.052092597 -0.12505996 0.99078071 0.0096594207
-79.363472 -42.206799 -0.27072725 -0.10279864 0.023403766 0.99442685 0.006329129
-69.155807 -42.225361 -0.30830309 -0.062977463 -0.14988542 0.98669559 0.022922317
-69.584564 -41.586163 -0.38221681 -0.057326276 0.069258839 0.99595028 0.014516538
-77.130028 -41.198368 -0.3883183 0.042979423 -0.071094848 0.99654317 0.0064840452
-69.111465 -41.15337 -0.44855404 0.05017779 0.092222326 0.99447334 0.020785335
-80.674835 -41.036518 -0.37418959 0.0096004568 -0.042134613 0.99906582 0.0062680147
-79.399239 -40.984501 -0.36431932 -0.020945968 -0.0072376369 0.99975443 0.0053983876
-80.721008 -40.22522 -0.34554207 -0.033572759 0.019313524 0.99924964 0.0065618982
-80.534813 -40.294979 -0.34482896 -0.0052419128 0.015763748 0.99986202 0.0072408351
-80.267433 -40.393993 -0.354045 0.062185418 0.011197372 0.99800181 0.0080792876
-78.174278 -40.332943 -0.34126744 0.049739309 0.014147351 0.99866205 0.0084084226
-67.13324 -40.34285 -0.3796142 -0.32019135 -0.074697144 0.94440341 0.01689324
-80.233871 -40.009171 -0.36901122 0.091990806 0.031627845 0.99525744 0.0086698793
-78.496834 -40.050385 -0.32355228 0.027123183 0.015017442 0.99951929 0.015320512
-79.130966 -39.891449 -0.37758452 -0.086243816 0.019131634 0.99609035 0.011191678
-78.860458 -39.837784 -0.34774661 -0.067026623 0.032262269 0.99722946 0.011912705
-77.27977 -39.725338 -0.41340435 -0.0089463973 -0.017962497 0.99979866 0.0084790774
-78.481796 -39.481094 -0.36170137 0.010085957 0.055301741 0.99841875 0.011117636
-76.710831 -39.505482 -0.37458196 -0.0005798873 0.03770249 0.99928886 0.014167673
-80.513931 -39.191788 -0.42691866 -0.008719407 0.14526363 0.98935455 0.031561475
-78.384033 -39.051819 -0.39893603 -0.008934225 0.033021856 0.99941468 0.0094115473
-80.164864 -38.838142 -0.4900828 -0.036984533 0.038545419 0.99857217 0.02982172
-80.021393 -38.777878 -0.49070111 -0.051639631 0.022213953 0.99841869 0.032574352
-77.479706 -38.736141 -0.42443752 0.048307341 0.076352783 0.99590999 0.015247834
-84.308777 -38.051098 -0.45454574 -0.035334401 -0.33320254 0.94219297 0.031419229
-79.054352 -38.312191 -0.42348006 -0.0093447762 0.0082757724 0.9999221 0.0065606018
-77.049271 -38.183018 -0.50654387 -0.031574879 0.057306793 0.99785721 0.021784462
-75.844185 -37.841164 -0.45053807 0.05153057 0.025604842 0.99834311 0.010881187
-83.461517 -37.512688 -0.42759985 0.10975296 -0.083335966 0.9904592 0.027498892
-84.363327 -37.426804 -0.28550404 -0.28497648 0.22437245 0.9319042 0.067976154
-84.261292 -37.439709 -0.26447415 -0.22684155 0.1611034 0.96051478 0.083077669
-81.928436 -37.49099 -0.49044111 0.080140404 -0.020907057 0.99656433 0.024105307
-78.805893 -37.243683 -0.43630186 -0.04261389 -0.0035737366 0.99908525 0.015411233
-84.042435 -36.979065 -0.41529959 -0.24459496 0.56336439 0.78917289 0.038065806
-79.939873 -37.067978 -0.447395 0.051402427 -0.051070526 0.99737132 0.015135798
-82.6409 -36.898594 -0.43084744 -0.053834621 -0.016317964 0.99841654 0.020080471
-77.367737 -36.601665 -0.40546823 0.031313997 -0.051951211 0.99815857 0.019272903
-76.93943 -36.803658 -0.42657393 0.022667019 -0.024162902 0.99945104 0.020457668
-78.599991 -36.376873 -0.43271282 -0.038935516 -0.052682742 0.99785197 0.020649938
-77.78949 -36.342808 -0.39589131 0.020971226 -0.068156399 0.99745423 0.018615603
-77.46505 -36.564583 -0.39931735 0.025825581 -0.060581177 0.99782914 0.01994154
-76.043999 -36.417805 -0.42469707 0.0088082915 -0.073337257 0.99726832 0.017594026
-75.972595 -36.08057 -0.37967476 -0.030766165 -0.085855201 0.9958325 0.016819729
-73.528564 -35.974289 -0.48693222 0.088427499 -0.14538792 0.9854151 0.019238645
-100.2266 -35.995068 -0.28543594 -0.75088477 -0.0056666937 0.66040891 0.018325873
-79.267502 -35.856709 -0.40240228 0.03356399 -0.058503106 0.9977228 0.019921238
-77.868378 -35.837875 -0.34366959 0.013077038 -0.027972938 0.99952316 0.022591939
-75.660858 -35.740532 -0.34155932 -0.02929396 -0.07221771 0.99695861 0.017615613
-74.836159 -35.918106 -0.40658948 0.081484146 -0.16059159 0.9836517 0.01253454
-80.043671 -35.639664 -0.33830115 -0.018865636 -0.029397774 0.99938977 0.0077154567
-78.824051 -35.512123 -0.363621 -0.052578028 -0.050979476 0.99731469 0.016726835
-78.087502 -35.441048 -0.32029587 -0.0058271545 -0.019919066 0.99978459 0.015936734
-77.745979 -35.647919 -0.33142069 0.020091623 -0.048772324 0.99860781 0.022479156
-77.383636 -35.670082 -0.35423437 0.065760948 -0.058186352 0.99613744 0.025511028
-75.327454 -35.553364 -0.34366 0.044982471 -0.019483082 0.99879777 0.015809411
-74.848213 -35.507969 -0.36159101 0.086199082 -0.027118422 0.9959088 0.014575018
-78.091362 -35.356709 -0.31620789 -0.0060337456 -0.018097393 0.99981803 0.013003765
-77.864601 -35.364773 -0.31700101 0.014029084 -0.0078439303 0.99987084 0.016778214
-77.513397 -35.162903 -0.32735699 0.024023984 0.0012583779 0.99971062 0.016806964
-75.819885 -35.289425 -0.3266151 -0.029437993 -0.0074876421 0.99953854 0.013004757
-74.772163 -35.135109 -0.39439055 0.022845747 0.010951009 0.99967903 0.012105448
-99.76963 -35.004101 -0.36930802 0.14894676 0.19871387 0.96867317 0.074789576
-80.375084 -34.924007 -0.38668117 0.13087511 0.065458722 0.98923552 0.010274501
-78.905342 -34.821476 -0.33715788 -0.040781662 -0.043819204 0.99820673 0.010167568
-78.440842 -34.963383 -0.32395703 0.013430417 0.019765062 0.99971443 0.012531318
-78.01001 -34.898056 -0.35189161 0.00090337609 0.036104262 0.99934763 0.01079879
-77.369469 -34.835018 -0.34983918 -0.00053234369 0.0076399818 0.99997067 0.01476439
-71.113945 -35.041233 -0.3407889 0.14585775 -0.072563954 0.98664075 0.020434221
-99.545036 -34.699749 -0.60639846 0.047392931 0.3862994 0.9211551 0.070731282
-91.198654 -34.501789 -0.29005936 -0.18651691 0.64649385 0.73976833 0.026020968
-76.057732 -34.527645 -0.37267348 0.016017688 0.028807092 0.99945664 0.0050165597
-73.536453 -34.695518 -0.43281385 0.10467533 -0.054277409 0.99302417 0.020878259
-72.250244 -34.76738 -0.41226602 -0.0099616023 -0.046636119 0.99886227 0.023434151
-95.318283 -34.49929 -0.45166174 0.14731051 -0.0051491195 0.98907691 0.045365024
-73.658211 -34.245403 -0.36545756 0.024253612 0.10553084 0.99412024 0.02850993
-91.505371 -33.943161 -0.38427588 -0.16112959 -0.016382206 0.98679727 0.025175042
-73.80397 -34.189667 -0.37548408 0.013643011 0.16928968 0.9854719 0.015110319
-72.042076 -34.088737 -0.40733802 0.057178233 0.030533504 0.99789697 0.017948387
-67.923927 -33.932369 -0.44353148 -0.12413441 -0.078364991 0.98916608 0.042267114
-70.622093 -33.821671 -0.40713862 -0.0044402652 -0.0046760398 0.9999792 0.016020877
-70.210663 -33.667332 -0.43055233 0.076396875 0.07549262 0.99421549 0.018292723
-91.066254 -33.439381 -0.43428674 0.09424679 0.090093151 0.99146396 0.038416173
-66.959084 -33.553951 -0.42402792 0.020526696 -0.042627979 0.99888015 0.015776962
-66.269402 -33.334747 -0.46180433 0.036219332 0.10721377 0.99357605 0.035767399
-92.270149 -33.122246 -0.46223405 -0.060420536 0.042026121 0.99728793 0.035400502
-91.964371 -33.235275 -0.41956595 -0.095749818 0.11307979 0.98896152 0.043345664
-68.170097 -33.250282 -0.54193145 -0.1139065 -0.037217498 0.9927941 0.027781978
-74.986725 -32.961887 -0.3238574 0.11332919 -0.024772629 0.99324864 0.019734047
-67.703804 -32.700588 -0.43769839 -0.0041627833 -0.18444322 0.98283434 0.039846651
-65.207932 -32.847603 -0.36754015 -0.10690829 0.023301404 0.99399579 0.03471091
-64.920357 -32.732414 -0.36229798 -0.004663277 0.1084685 0.99408895 0.038295113
-62.840462 -32.849319 -0.45403826 0.20126258 0.0089701749 0.97949624 0.05225746
-59.787506 -32.943554 -0.46870306 -0.00372562 0.1604494 0.98703706 0.030197179
-91.593582 -32.692326 -0.46836808 -0.014677603 0.045053266 0.99887675 0.024610108
-67.526062 -32.613338 -0.42856655 0.12198199 -0.17822404 0.97639978 0.041530181
-65.596733 -32.599266 -0.43318954 -0.046427652 -0.058376167 0.9972145 0.030370783
-85.220879 -32.1003 -0.23780465 -0.27585074 -0.079708301 0.95788985 0
-67.277718 -32.282124 -0.37363461 0.25450149 -0.17156182 0.95173293 0.045010153
-67.092255 -32.358635 -0.4431158 0.099700302 -0.12719636 0.98685408 0.038978558
-64.731186 -32.178799 -0.46866992 0.035130091 0.0267448 0.99902481 0.038120504
-63.910305 -32.308292 -0.47986984 0.056808587 0.033001445 0.99783951 0.040246151
-62.798901 -32.172783 -0.40980744 -0.18694289 0.065687023 0.98017222 0.032520045
-62.574677 -32.249283 -0.38866675 0.0066423882 -0.07144326 0.99742258 0.037619114
-85.477058 -31.828783 -0.29356357 -0.57487845 -0.27964666 0.76896846 0.018068049
-65.423798 -32.098217 -0.3907707 0.13000098 0.11334527 0.98501402 0.047202125
-61.188305 -31.896948 -0.50591063 -0.16437599 -0.026236791 0.98604876 0.042987324
-84.190002 -31.553534 -0.33233124 -0.13888519 -0.377033 0.91572762 0.045903236
-82.390015 -31.597569 -0.25568715 -0.032417584 0.0037057402 0.99946755 0
-64.023994 -31.790363 -0.45670289 0.10307298 0.15111116 0.98312837 0.052140687
-62.755127 -31.534418 -0.34612802 -0.35314566 0.12432342 0.92727119 0.031310417
-62.111794 -31.519295 -0.35082683 0.13944338 0.066086754 0.98802233 0.019415176
-85.322624 -31.351732 -0.31063667 0.12623273 0.095259838 0.98741627 0.07799422
-83.916397 -31.438963 -0.27801943 -0.10120675 0.054735824 0.99335855 0.038929604
-83.597649 -31.42588 -0.23435353 -0.15024579 -0.014658096 0.98853999 0.037983403
-60.771091 -31.342817 -0.38813609 -0.22373265 0.20550625 0.95273864 0.033479478
-84.140396 -31.173307 -0.29679087 -0.072643802 0.077689499 0.99432755 0.035641041
-83.128593 -30.901653 -0.28506961 -0.099044219 0.15750153 0.9825393 0.027428517
-82.443443 -30.941605 -0.27795923 0.056028079 0.023714703 0.99814755 0.0078014713
-62.503212 -31.097614 -0.36245242 -0.11928179 0.16703606 0.97870874 0.048453119
-85.264229 -30.626484 -0.36529562 -0.33989257 0.0054911412 0.94044822 0.066452488
-84.335014 -30.764963 -0.42545125 0.058439847 0.081870288 0.99492818 0.033306882
-83.056427 -30.874344 -0.28376272 -0.07144092 0.056372914 0.99585056 0.022397038
-60.925667 -30.848198 -0.38133946 -0.22731841 -0.05044714 0.97251296 0.036420565
-85.3339 -30.454758 -0.36956471 -0.42770064 -0.012753473 0.90383047 0.069409549
-85.08902 -30.367682 -0.31619599 -0.070927404 -0.071413554 0.9949218 0.045470558
-84.736053 -30.478136 -0.35214466 0.088110961 0.039354719 0.99533296 0.035885781
-62.363758 -30.592031 -0.50559407 0.0089120427 0.26376066 0.96454698 0.043411061
-85.203209 -30.274729 -0.30591241 -0.12263129 -0.063261479 0.99043405 0.053074438
-85.089912 -30.155956 -0.31527397 -0.056983653 -0.03722316 0.99768096 0.036097232
-84.881226 -30.066278 -0.32925162 0.022027062 -0.011477102 0.99969149 0.026062587
-84.513069 -30.18112 -0.37074593 0.049396835 -0.066730544 0.99654752 0.03070182
-83.52079 -30.124804 -0.33186132 -0.14311218 -0.053842597 0.98824078 0.029494835
-83.030334 -30.2108 -0.30615488 0.078252956 0.072413906 0.99430013 0.028374588
-81.794586 -30.235283 -0.25507978 0.11935752 0.093503579 0.98843861 0.03317523
-85.301056 -29.876251 -0.38045737 -0.32744789 0.040796865 0.94398808 0.034473039
-85.048721 -29.875793 -0.32530975 -0.0067133075 -0.020051429 0.99977642 0.024551766
-84.450142 -29.877705 -0.36619389 0.022687875 -0.046904251 0.99864173 0.023163401
-84.297302 -29.82863 -0.35858181 0.016503666 -0.044553746 0.99887067 0.023981208
-83.837021 -29.93083 -0.34352356 -0.04278199 -0.063184291 0.9970845 0.027180392
-83.587517 -29.870443 -0.32202983 -0.066038877 0.0031282394 0.99781215 0.028913502
-85.324669 -29.58976 -0.37418786 -0.25531194 0.0075281207 0.96682942 0.028740901
-84.167473 -29.656794 -0.30321684 0.018398983 -0.0050507835 0.99981797 0.030367557
-83.771019 -29.599218 -0.32613203 -0.0090242987 0.031041332 0.99947739 0.0249098
-83.021439 -29.52648 -0.39964265 0.16435194 0.056385554 0.98478889 0.028355643
-85.418678 -29.118484 -0.37445393 -0.39475212 0.11521987 0.91153449 0.045693018
-85.023087 -29.237005 -0.31982258 -0.084589742 0.055550661 0.99486619 0.027235378
-84.75148 -29.296268 -0.3268756 0.019642411 0.057773605 0.99813646 0.016607797
-84.365089 -29.115917 -0.3608526 0.041659981 0.10859267 0.993213 0.021933708
-83.803749 -29.297758 -0.3659181 0.018371537 0.15127847 0.98832047 0.032181524
-61.085155 -29.35792 -0.29582137 0.799519 0.24779177 0.5471459 3.9993518e-17
-84.628021 -29.051546 -0.33284625 0.066855878 0.15610297 0.9854756 0.019510712
-84.529961 -29.022842 -0.35455343 0.046960756 0.13803899 0.98931283 0.019107571
-80.680672 -29.056593 -0.33060431 -0.12395826 0.078340136 0.98919016 0.026613789
-78.535736 -28.939297 -0.45919469 0.053923592 -0.13285868 0.989667 0.037558749
-76.374527 -28.975378 -0.15246977 0.52421695 0.2930429 0.7995764 0.02417326
-76.162163 -28.887556 -0.30933234 0.62005615 -0.27082512 0.73633152 0.040757436
-74.651665 -29.027712 -0.15462282 0.58394134 0.20710219 0.78493387 0.030059332
-84.494057 -28.664999 -0.43417302 0.10192669 0.25163597 0.96243978 0.0246603
-83.040833 -28.689514 -0.47080851 -0.094162427 0.22959942 0.96871954 0.041053258
-81.764549 -28.66157 -0.32863337 0.04618087 -0.053619158 0.99749303 0.024926269
-80.94706 -28.521847 -0.48435548 -0.054383431 0.080865793 0.99524027 0.039753828
-80.665459 -28.599699 -0.42034748 -0.10702119 -0.016092151 0.9941265 0.031293046
-79.938576 -28.550756 -0.31495288 0.051111665 0.0041186451 0.99868447 0.022240896
-77.490021 -28.668121 -0.12710871 -0.1653627 0.67065018 0.72310686 0.020952199
-77.208725 -28.58202 -0.15954208 -0.0029854141 0.51462877 0.85740793 0.036291089
-76.860451 -28.504578 -0.21801649 0.068806142 0.35849661 0.93099189 0.034489278
-76.634987 -28.605762 -0.20695938 0.15524217 0.31144732 0.9374969 0.027749443
-76.213593 -28.685537 -0.28861764 0.34129131 0.028460823 0.93952662 0.032810785
-74.792183 -28.714888 -0.19241276 0.10362786 0.16204922 0.98132628 0.025374526
-74.579178 -28.633677 -0.25165612 0.34496346 0.077346757 0.93542379 0.0230364
-80.007507 -28.264563 -0.35155195 0.053049777 -0.027986886 0.99819958 0.02476448
-77.839531 -28.397982 -0.37648603 -0.10290018 0.26170295 0.95964742 0.034988493
-76.991051 -28.288279 -0.32955793 0.013014337 0.30693579 0.95164126 0.028270308
-76.020432 -28.377337 -0.31542221 0.059016015 0.071175173 0.99571645 0.012639891
-75.505226 -28.254185 -0.27831542 -0.046917237 0.1189675 0.99178904 0.015730411
-82.089951 -28.167938 -0.3529385 -0.35143355 0.16210723 0.9220714 0.050105661
-79.536263 -28.113522 -0.39510357 0.077210248 0.0068572657 0.99699128 0.023817183
-79.452377 -28.060987 -0.40233168 0.068246081 0.067655362 0.99537188 0.027194792
-74.797577 -28.043564 -0.31148425 -0.049087863 0.15047108 0.98739499 0.045077328
-74.317337 -28.072332 -0.2932691 0.06441994 0.081709094 0.9945721 0.03862007
-73.305023 -27.981424 -0.27109653 -0.04281399 -0.025209785 0.99876493 0.020644194
-73.198921 -27.922251 -0.26872998 -0.0051078792 0.014389504 0.99988341 0.020886498
-68.784592 -27.975189 -0.2358638 -0.60625339 0.31410912 0.73061091 0.0016997892
-81.78212 -27.85919 -0.37425804 -0.12755358 0.22949255 0.96491617 0.10281025
-81.191956 -27.764523 -0.43544018 0.06997136 -0.0043989313 0.99753928 0.035190474
-80.303749 -27.838306 -0.40218672 -0.057409577 0.052562352 0.99696606 0.021407733
-79.248291 -27.748474 -0.43073049 0.02506486 0.024952376 0.99937439 0.033417013
-79.130997 -27.733761 -0.42856762 -0.02330314 0.016585438 0.99959087 0.033527806
-77.737617 -27.680641 -0.38596654 0.11325134 0.012391603 0.99348909 0.043113347
-76.67627 -27.811256 -0.3699626 -0.014488894 0.064025901 0.99784303 0.024781222
-75.232437 -27.828135 -0.33444679 -0.0079997666 0.1132117 0.99353868 0.035770401
-73.955269 -27.751011 -0.3098847 -0.075579785 0.02795589 0.99674779 0.032692801
-72.980309 -27.725903 -0.30483294 0.07290139 -0.024719298 0.99703276 0.021285983
-71.212563 -27.622053 -0.28912437 -0.44539365 0.52364337 0.72623831 0.039141987
-79.877563 -27.352116 -0.3303377 0.092047647 0.07963559 0.99256504 0.042061407
-79.775917 -27.336313 -0.3466647 0.11372801 0.0915059 0.98928893 0.03883953
-76.241257 -27.50219 -0.37948051 0.0055473093 0.012533519 0.99990606 0.0080409804
-75.548286 -27.436619 -0.36432523 -0.02824964 0.010585712 0.99954486 0.025311356
-74.774567 -27.518612 -0.39270309 -0.0013194965 0.099632062 0.99502349 0.039143387
-74.600845 -27.556091 -0.39251325 -0.038294327 0.10178778 0.9940688 0.036220592
-73.91217 -27.385962 -0.33128673 -0.070207238 0.073453926 0.99482435 0.03263567
-70.090706 -27.483049 -0.24887908 -0.27643034 0.095454685 0.95628172 0.064437725
-81.538597 -27.059122 -0.43672198 -0.45051089 0.22405283 0.86419922 0.096786402
-80.114334 -27.107819 -0.3265911 0.003288826 0.1205496 0.99270183 0.052245159
-79.897713 -27.26738 -0.33738863 0.070603557 0.096134312 0.99286121 0.043153021
-79.678932 -27.162819 -0.3746345 0.14038487 0.14926329 0.97878116 0.041210108
-78.625481 -27.10154 -0.37034628 -0.072459124 0.026298728 0.9970246 0.023786107
-75.349869 -27.188259 -0.34840927 0.055963028 0.051365148 0.99711072 0.035139531
-75.262604 -27.18866 -0.35962397 0.053995676 0.072465129 0.99590826 0.035352476
-73.22699 -27.173153 -0.33340448 -0.015849279 -0.048867073 0.99867952 0.018445518
-72.32151 -27.234682 -0.35015216 0.097264759 -0.058077425 0.99356258 0.017804135
-72.310745 -27.278751 -0.35340092 0.10100283 -0.056425035 0.99328476 0.019593829
-69.762482 -27.113064 -0.19968538 0.26206669 -0.012259291 0.9649719 0.068739451
-75.382347 -26.715708 -0.35696861 0.0643057 0.16277435 0.98456556 0.017941007
-73.894211 -26.965612 -0.34456477 -0.11294213 -0.0069808713 0.99357706 0.034508176
-73.608406 -26.753433 -0.28040153 -0.064769104 -0.017944604 0.9977389 0.015216148
-71.232277 -26.782061 -0.30043727 -0.3124072 0.0048418832 0.94993591 0.01661016
-70.236183 -26.810177 -0.2046832 -0.26599896 -0.0096307062 0.96392518 0.045049373
-75.421143 -26.665646 -0.37708926 0.073463693 0.12470877 0.98946995 0.01579373
-71.63562 -26.609749 -0.39044529 0.022464361 0.01851269 0.99957621 0.021959219
-70.282158 -26.533001 -0.21156059 0.051507112 0.27619237 0.95972121 0.030823875
-69.954666 -26.657804 -0.15752891 0.063037023 0.047503904 0.99687999 0.056546018
-69.816078 -26.681009 -0.18377763 0.25999033 0.012111085 0.96553528 0.040568855
-74.121986 -26.287216 -0.37861773 -0.10627342 0.062411159 0.99237633 0.0068912543
-70.293816 -26.160532 -0.33845434 -0.2299967 0.16276997 0.95948291 0.024424097
-97.751778 -20.715532 -0.39929587 -0.03714614 0.049000457 0.99810779 0.045996342
-99.433334 -20.432285 -0.298233 0.88535804 0.31384239 -0.34299287 0.019939385
-94.28656 -20.499111 -0.2664527 -0.75607026 -0.62199545 0.20366488 0.021101091
-94.501244 -20.117882 -0.14470647 -0.6225999 -0.72676629 0.29013821 0.018600145
-101.21243 -20.016228 -0.29824886 0.62634277 -0.77954751 -0.00063320406 0
-94.557884 -20.094704 -0.19396405 -0.5612821 -0.72863686 0.39249298 0.018600145
-98.977478 -19.541176 -0.069341034 -0.19469629 0.89571828 0.39972761 0.026857663
-91.869644 -19.625702 -0.31369886 0.016851079 -0.42424655 0.9053899 0.015069931
-100.54733 -19.481956 -0.1547766 -0.15911956 -0.98632562 0.042926956 0.021718334
-98.890076 -19.416573 -0.28740975 0.48241046 0.59709114 0.64090741 0.027242228
-92.871872 -19.227854 -0.21211843 -0.015849516 -0.25636786 0.96644932 0.0053163329
-91.511887 -19.382538 -0.20962402 0.15239035 -0.43505237 0.88741571 0.010822237
-91.495995 -19.44183 -0.24842703 0.18898438 -0.50761938 0.84059948 0.014611238
-96.499847 -18.979149 -0.098993883 -0.16120857 0.62707931 0.76209146 0.019811735
-95.229385 -19.039103 -0.17007291 -0.56426954 -0.42163733 0.70980406 0.021085585
-95.043549 -18.995077 -0.059593942 -0.26370671 -0.30163035 0.91623026 0.028597182
-94.35746 -18.892557 -0.15783964 0.043135338 -0.24703756 0.96804535 0.018895151
-94.049286 -19.084377 -0.21434268 0.13861807 -0.048516449 0.98915678 0.039653044
-93.668663 -19.046984 -0.15962525 -0.044713665 -0.068770453 0.99662995 0.023029434
-93.497513 -19.015099 -0.14283943 -0.029658569 -0.16655792 0.98558551 0.026461769
-92.905342 -19.187841 -0.20244423 -0.015076994 -0.25243828 0.96749556 0.0053163329
-91.913757 -19.116116 -0.066569217 0.023835514 -0.31964535 0.94723743 0.011654229
-86.78614 -18.913675 -0.2837058 -0.27821618 0.022805905 0.9602477 0.0076127523
-86.354576 -18.897688 -0.24818864 0.20277062 -0.25193289 0.94626313 0.022844138
-96.211388 -18.628574 -0.18473072 0.024726696 0.079402067 0.99653596 0.010733061
-95.472 -18.64674 -0.21676007 -0.26312712 -0.03537482 0.9641124 0.013538334
-95.289886 -18.775919 -0.097219251 -0.1057403 0.079345383 0.99122316 0.013643533
-94.157372 -18.737171 -0.14359367 -0.028131207 -0.14819755 0.98855758 0.047995158
-93.678078 -18.724985 -0.066431202 -0.063020281 -0.21296829 0.97502458 0.029092221
-93.499222 -18.733948 -0.059854046 -0.043076318 -0.20756646 0.97727203 0.02570316
-92.524872 -18.683327 -0.071587652 -0.098395705 -0.12854894 0.98680973 0.015395969
-91.362045 -18.732767 0.0056086243 0.11564991 -0.2572065 0.95941126 0.016145669
-86.769188 -18.785864 -0.2456647 0.1185125 -0.098170415 0.98808771 0.0062454436
-98.918793 -18.567326 -0.29345152 0.67690599 -0.16099811 0.7182464 0.0073374021
-96.26474 -18.593279 -0.17666855 0.10640823 -0.023623526 0.99404186 0.010759351
-95.538391 -18.495701 -0.21374325 -0.20544569 -0.16002427 0.9654969 0.019576777
-95.287926 -18.497307 -0.16835789 -0.089750849 0.055861555 0.99439645 0.022422485
-94.341835 -18.408041 -0.15190648 -0.16406386 0.12630109 0.97833079 0.040349994
-92.883263 -18.595127 -0.098738298 -0.075326301 -0.067209527 0.99489135 0.018795233
-92.411049 -18.544708 -0.037285533 -0.12378859 -0.090033107 0.9882158 0.016920459
-90.677979 -18.517576 -0.03595819 0.33207491 -0.20356578 0.9210251 0.033932559
-87.990608 -18.404123 -0.11195204 -0.34184694 -0.57856244 0.7405445 0.036048152
-87.653236 -18.519659 0.030005652 -0.27356431 -0.90158665 0.33511806 0.021107605
-86.801262 -18.586132 -0.20603547 0.065156974 -0.20240383 0.97713214 0.0062832483
-84.349548 -18.296192 -0.38386676 0.10890988 -0.53140461 0.84008795 0.0096727218
-96.684685 -18.094116 -0.12420373 -0.43174708 0.094308987 0.89705086 0.017972326
-96.473602 -18.116594 -0.067377016 0.044227198 0.37627298 0.92545265 0.0280893
-94.035721 -18.273201 -0.07314112 -0.19907984 0.12279891 0.97225904 0.036939818
-93.184471 -18.064257 -0.065709218 -0.034828436 0.18912877 0.98133445 0.021461213
-92.222916 -18.180489 0.0060643884 -0.20841977 0.013419464 0.97794741 0.024775945
-91.053474 -18.03149 0.050057847 0.04185674 0.073112078 0.996445 0.023524359
-90.511276 -18.087421 0.023542751 -0.092488803 -0.052709237 0.99431765 0.035178535
-88.667824 -18.211868 0.014389291 0.25756422 -0.14343807 0.95555544 0.03378281
-88.477188 -18.09416 -0.025090775 0.091647096 -0.0017042024 0.99579006 0.03711547
-86.367836 -18.223621 -0.22542804 0.36929247 0.080061562 0.92585808 0.0092311408
-85.242844 -18.113894 -0.16445239 0.685561 -0.63408065 0.35769796 0.010448356
-96.621902 -17.987564 -0.14851123 -0.12496182 0.58975327 0.79785687 0.0280893
-95.804626 -17.76856 -0.012510557 0.13154207 0.25369254 0.95829892 0.027519807
-93.327827 -17.915594 -0.088627622 -0.032793541 0.2604382 0.96493345 0.034593664
-92.582458 -17.769775 -0.095023625 -0.14080714 0.076312698 0.98709154 0.016665224
-92.329353 -17.917347 -0.045407198 -0.15779643 0.093288839 0.98305517 0.016534436
-91.832161 -17.770855 0.032664809 -0.08499749 0.13856903 0.98669857 0.024584493
-90.464767 -17.857584 0.031499971 -0.18123321 0.048799336 0.98222864 0.035178535
-85.019768 -17.86408 -0.15021016 0.54333299 -0.52880639 0.65203762 0.014138512
-84.547638 -17.928596 -0.2633633 0.087555625 0.11771086 0.98918056 0.014994086
-83.71138 -17.902727 -0.1797998 0.15064211 -0.38969097 0.90854162 0.011296248
-83.089195 -17.71233 -0.28835744 0.59599096 -0.23934187 0.76649219 0.0026920694
-95.841774 -17.673714 -0.026051832 0.16549286 0.34371999 0.92437476 0.037269104
-93.724579 -17.490261 -0.26550388 0.27628002 0.19561842 0.94095844 0.022572409
-93.452248 -17.66107 -0.2543942 -0.1247389 -0.013413646 0.99209893 0.017184746
-92.539192 -17.526627 -0.12237819 -0.10869528 0.064653732 0.99197036 0.019597974
-92.069466 -17.586449 -0.055976354 -0.13434419 0.081529446 0.98757511 0.031196699
-91.358627 -17.590187 -0.048245527 0.024575714 0.13739666 0.99021119 0.018405724
-90.361931 -17.471197 0.047376689 -0.091759607 -0.024958549 0.99546838 0.039148457
-90.106628 -17.578535 0.072337866 -0.014032659 -0.084978618 0.99628395 0.041477796
-89.427025 -17.626997 0.020341633 0.097261384 0.058028739 0.99356574 0.035986625
-87.37619 -17.533718 -0.049941078 0.24782892 0.37379938 0.89378679 0.026651334
-87.057922 -17.453388 -0.10670786 0.11080448 0.11040743 0.98769051 0.031230109
-86.829086 -17.469124 -0.15390217 0.1177496 -0.0041809306 0.99303454 0.016351681
-84.944908 -17.639423 -0.087134495 0.46072686 -0.33056262 0.8236863 0.011336956
-95.874496 -17.354292 -0.19092119 0.46838379 0.30459934 0.8293587 0.047167417
-92.241776 -17.229206 -0.092594549 -0.1572247 -0.1229831 0.97987527 0.028694756
-90.467834 -17.248745 -0.013660197 -0.17417482 0.050975624 0.98339444 0.023512466
-89.246994 -17.124582 0.014781013 0.11209996 0.052370831 0.99231595 0.029860048
-88.570915 -17.304832 0.0039695292 -0.17202108 0.082926266 0.98159665 0.023574542
-87.455864 -17.259453 -0.078542158 0.24300732 0.072574951 0.96730572 0.03178402
-87.169838 -17.384949 -0.097296655 0.062768571 0.03127487 0.99753797 0.030833101
-86.722534 -17.339468 -0.15089436 0.052416146 -0.081533574 0.99529135 0.019064115
-86.679794 -17.292963 -0.14814368 0.032852333 -0.10641195 0.99377924 0.019064115
-85.98597 -17.275534 -0.24218905 -0.53290957 -0.71178252 0.45757303 0.047135305
-92.416092 -16.994593 -0.10352416 -0.27104193 -0.33191752 0.9035303 0.035953544
-92.252632 -16.99782 -0.060523391 -0.22796568 -0.35960475 0.90482932 0.035953544
-91.017929 -16.832472 -0.15474948 -0.040872756 0.032620095 0.99863172 0.032573041
-90.671906 -16.847569 -0.039794568 -0.049460869 0.14185731 0.98865068 0.032206777
-89.170372 -16.939823 0.0052796658 0.14504223 -0.0024848138 0.98942232 0.031735595
-87.501282 -16.944818 -0.067945138 0.093497805 0.068555996 0.99325639 0.02373345
-87.162109 -16.949234 -0.062698156 -0.025986549 -0.051512379 0.99833423 0.027438261
-86.161606 -16.839973 -0.00072174345 -0.13846812 -0.17557307 0.97467977 0.030127795
-86.020531 -16.993269 -0.0084652156 -0.13303767 -0.30619532 0.94262683 0.033617537
-84.952263 -16.89045 -0.0073404284 0.85855824 0.077548839 0.50681746 0.027202696
-90.639954 -16.746063 -0.046887431 -0.10141214 0.093536071 0.99043757 0.032206777
-89.714973 -16.610775 0.024278576 0.053890999 0.099378258 0.99358934 0.016795281
-89.135162 -16.780888 -0.023069357 0.1298033 0.037572794 0.99082762 0.025950035
-88.907623 -16.676878 -0.090337485 0.049247019 0.10677524 0.99306285 0.02563726
-88.743492 -16.603832 -0.087511569 0.0048695132 0.016422279 0.99985331 0.027235569
-88.364372 -16.595358 -0.11314946 0.048436388 0.026467372 0.99847555 0.028710036
-87.409187 -16.755682 -0.069062315 0.0034137417 0.032406267 0.99946892 0.021458883
-87.220551 -16.584822 -0.063268378 -0.03522639 -0.036325999 0.99871892 0.015241619
-86.892365 -16.587021 -0.039543025 -0.039611898 0.02571572 0.9988842 0.01803722
-86.210999 -16.637632 0.011093384 -0.16800241 -0.041375488 0.98491788 0.024644688
-78.471848 -16.651691 -0.17529114 0.75698829 -0.63326591 0.16106856 0
-90.867813 -16.322105 -0.1799989 -0.54029238 -0.5611648 0.62703919 0.050217513
-89.635162 -16.254541 -0.058567211 0.12657729 0.13206904 0.98312563 0.018134562
-88.685616 -16.378571 -0.067500405 0.055230267 -0.070397474 0.99598885 0.018375775
-88.316399 -16.381083 -0.075378276 0.02479467 -0.0255633 0.99936569 0.026763471
-87.980057 -16.268303 -0.099084146 0.017173421 -0.12562636 0.99192899 0.021572141
-87.148758 -16.45825 -0.04808078 0.0075627612 -0.012071051 0.99989855 0.013458959
-86.233482 -16.366913 -0.020755991 -0.058618456 0.020503394 0.99806988 0.021415101
-78.140808 -16.280436 -0.2714569 0.45618239 0.70959419 0.53700435 0.011087592
-89.595718 -16.032076 -0.11070149 0.076617956 0.088004716 0.99316907 0.024092123
-89.28289 -16.156639 -0.036392175 -0.11262017 0.14038663 0.98367083 0.023677045
-88.353813 -15.95233 -0.0072991215 0.01834216 -0.18037395 0.98342705 0.023020951
-88.045769 -15.969242 -0.013851061 0.083634324 -0.20116673 0.97598016 0.022562483
-87.529457 -16.107914 -0.082136951 0.092452109 -0.048697803 0.99452555 0.018322112
-86.272736 -16.120552 -0.042546321 -0.057688985 0.072520889 0.99569708 0.018026201
-86.064262 -15.904298 -0.03144148 -0.1951662 0.12450704 0.97283512 0.023907971
-85.371933 -16.045095 0.075411156 0.03058791 0.11547434 0.9928394 0.018214606
-89.507401 -15.762521 -0.14457248 0.048298568 0.04819135 0.9976697 0.04073358
-88.963371 -15.610559 -0.020997413 -0.26792648 0.036574122 0.96274489 0.036065791
-88.538689 -15.844395 0.015798531 -0.034967449 -0.12271982 0.99182516 0.031071506
-88.366325 -15.881612 0.0044746399 0.064943373 -0.10061808 0.99280328 0.023181301
-88.041313 -15.893103 0.0026578766 0.075344168 -0.18599959 0.97965676 0.024471806
-87.322418 -15.678296 -0.068441726 0.039165381 -0.0080199856 0.99920058 0.029462259
-87.256142 -15.668509 -0.064275742 0.027745014 0.021954358 0.99937391 0.026500281
-85.995468 -15.721169 -0.051148511 -0.075293109 0.10648999 0.99145895 0.025529889
-81.705139 -15.675883 -0.12582088 -0.20559481 -0.87749523 0.43328154 0
-81.042419 -15.853633 -0.17134029 -0.20559481 -0.87749523 0.43328154 0
-79.589798 -15.721347 -0.10485741 0.18159796 -0.87732995 0.44420075 0.046345882
-79.388306 -15.68636 -0.1487245 -0.19591768 0.2035675 -0.95925832 0.046345882
-78.867859 -15.604568 -0.24777377 0.23205481 -0.87887251 0.41681376 0.014420898
-89.393021 -15.564963 -0.13543478 -0.025059095 -0.11526965 0.99301809 0.039587446
-89.074577 -15.455539 -0.07488697 -0.13191153 -0.1361427 0.98186785 0.03664989
-88.702454 -15.52871 0.041796692 -0.15251409 -0.055691727 0.98673093 0.041281082
-87.340866 -15.532468 -0.057159476 0.039694369 0.064159468 0.99714988 0.028184686
-87.276398 -15.48053 -0.058984298 0.017453874 0.091311097 0.99566942 0.030260151
-86.703087 -15.338652 -0.1222196 -0.030605324 0.16088384 0.98649871 0.033377644
-86.626244 -15.409668 -0.10027333 -0.019961001 0.14488493 0.98924714 0.035571761
-86.378975 -15.386799 -0.089052714 -0.032364625 0.10007655 0.99445325 0.029086461
-85.818649 -15.310517 -0.067174062 -0.13621669 -0.031421021 0.99018067 0.025190677
-79.572861 -15.556331 -0.18035819 0.6051988 0.14046592 -0.78358388 0.046345882
-79.428589 -15.540878 -0.11298218 0.14091764 0.25608319 -0.95632821 0.046345882
-88.578819 -15.196108 0.022915371 -0.017811062 0.11285874 0.99345142 0.034582779
-87.411018 -15.220134 -0.072404288 0.1045811 0.15148151 0.98291206 0.034510851
-87.278053 -15.15272 -0.11604409 0.12824056 0.19001603 0.97336954 0.032516155
-86.665649 -15.216938 -0.14340106 -0.066934399 0.17156434 0.98289645 0.030231811
-86.233185 -15.185663 -0.064454444 -0.039027564 0.019499172 0.99904788 0.033498194
-87.773964 -14.735384 -0.15718818 0.061987765 0.1796317 0.98177898 0.02359347
-86.79776 -14.811341 -0.28408775 -0.11085866 0.15891746 0.98104823 0.033535402
-86.557442 -14.943476 -0.18907739 -0.13181996 0.16754454 0.97701192 0.031204274
-86.129494 -14.830639 -0.054336257 -0.21375912 0.014212593 0.97678298 0.033208169
-87.900955 -14.50851 -0.20392174 0.027212283 0.13703628 0.99019217 0.028665543
-87.800774 -14.572239 -0.18718264 0.32463399 0.37518609 0.86824429 0.039836287
-86.016899 -14.624722 0.00056947133 -0.23145927 0.066098966 0.97059649 0.029592181
-85.139084 -14.385678 0.024181342 0.51230133 0.25522193 0.8200056 0.035672296
-88.808357 -14.332617 -0.19425267 0.23295319 0.16912085 0.95766956 0.016226485
-88.796783 -14.394269 -0.20567378 0.35779718 0.20149167 0.9118017 0.018115973
-88.253487 -14.165974 -0.2208313 0.047426432 0.10976328 0.99282563 0.027203051
-88.027794 -14.240482 -0.22616559 0.02944129 0.13544193 0.99034774 0.031615701
-87.755707 -14.194904 -0.23395273 0.093595617 0.12679294 0.98750365 0.042191528
-86.03875 -14.268382 -0.08096543 -0.26442063 0.19888742 0.94367659 0.01938167
-85.379128 -14.280338 0.076020017 0.14825638 0.31245771 0.93829113 0.03695536
-85.081177 -14.220649 -0.074733838 0.44445512 0.25178012 0.85968971 0.052749049
-88.954231 -13.991502 -0.23255116 -0.11123057 -0.025582777 0.9934653 0.009376727
-88.120552 -13.932505 -0.2577925 0.079479523 0.12792611 0.98859394 0.017149154
-87.664314 -14.037879 -0.26530293 0.05323435 0.12922783 0.99018496 0.03653568
-87.217422 -13.825182 -0.29295155 0.078941144 0.11035834 0.99075192 0.018449448
-85.13752 -13.82443 -0.12380832 0.36847895 0.087223358 0.92553514 0.026574394
-88.007294 -13.747467 -0.31042621 0.068332113 0.18063614 0.98117346 0.02872921
