# .PCD v0.7 - Point Cloud Data file format
VERSION 0.7
FIELDS x y z normal_x normal_y normal_z curvature
SIZE 4 4 4 4 4 4 4
TYPE F F F F F F F
COUNT 1 1 1 1 1 1 1
WIDTH 577
HEIGHT 1
VIEWPOINT 0 0 0 1 0 0 0
POINTS 577
DATA ascii
-16.933771 -163.91452 -0.86208558 0.020966515 0.013615947 0.99968743 0.00027488393
-16.567842 -164.02089 -0.86970526 0.021568833 0.012818137 0.99968517 0.00027571985
-16.406721 -164.06802 -0.87352914 0.021616984 0.012503607 0.99968815 0.00027654413
-16.060167 -163.95461 -0.885472 0.021884706 0.012607022 0.999681 0.00027342548
-2.1723316 -163.80908 -0.99662542 -0.0034985179 0.013840506 0.99989808 0.000874769
9.6780405 -164.08037 -0.98428488 -0.012872432 0.019138213 0.99973398 0.0015083491
-20.43738 -163.79396 -0.78640908 0.019007297 0.017039301 0.99967414 0.00027142378
-19.909952 -163.55045 -0.80161476 0.01880629 0.0176122 0.999668 0.00026884626
-19.465185 -163.51782 -0.81027937 0.019115012 0.017422901 0.9996655 0.0002683363
-19.08684 -163.69685 -0.81511712 0.019450041 0.016539467 0.99967402 0.00027259268
-18.685963 -163.67952 -0.82426476 0.019637497 0.016211234 0.99967575 0.0002718083
-17.642292 -163.64529 -0.84854472 0.02017257 0.015237143 0.9996804 0.00027563889
-16.716454 -163.72049 -0.87090254 0.020985913 0.01412117 0.99968004 0.00027058489
-15.912293 -163.77228 -0.89066321 0.02188473 0.013109943 0.99967456 0.00027409414
-14.825035 -163.51207 -0.92255795 0.022607401 0.012750058 0.99966311 0.00027667615
-14.27047 -163.7229 -0.93636221 0.022565829 0.011659265 0.99967736 0.0002707493
12.486356 -163.6955 -0.91082603 -0.018705029 0.0035109841 0.99981886 0.0017603885
-28.698317 -163.25392 -0.71557713 0.010831042 0.0096517736 0.99989474 0.00032604911
-25.320475 -163.32489 -0.72704089 0.015772911 0.016052902 0.99974674 0.00027053244
-23.603085 -163.21028 -0.75114089 0.018913945 0.018538531 0.99964923 0.0002534026
-23.126005 -163.36626 -0.75181288 0.019196104 0.018563485 0.99964339 0.0002559862
-22.640854 -163.40529 -0.75741071 0.019004818 0.018510178 0.99964803 0.00025463899
-18.924351 -163.39735 -0.82281733 0.019287411 0.017366935 0.99966311 0.0002726703
-18.789906 -163.35551 -0.82653856 0.019384723 0.017370207 0.99966121 0.00027302661
-17.363756 -163.4688 -0.85715824 0.020280562 0.015588025 0.99967283 0.00027882599
-16.72941 -163.38371 -0.87539649 0.020697957 0.015307135 0.9996686 0.00026898787
-16.278894 -163.37076 -0.88594675 0.021286881 0.014819579 0.99966359 0.00027186371
-16.154253 -163.3625 -0.88879263 0.021440344 0.014627673 0.99966311 0.00027378765
-15.402466 -163.49336 -0.90640652 0.022189714 0.013322797 0.99966502 0.00027701768
-14.306323 -163.4808 -0.93723172 0.022416128 0.012416721 0.99967164 0.0002791204
-13.726553 -163.34305 -0.95391428 0.022009727 0.012164537 0.99968374 0.00027986389
-12.85624 -163.22975 -0.97789347 0.022174116 0.011668792 0.999686 0.00029497052
-21.095289 -163.04921 -0.79223627 0.018987326 0.019470003 0.99963015 0.00025380147
-19.68502 -163.17056 -0.81206197 0.018848408 0.018745441 0.9996466 0.00026579227
-18.342701 -163.13924 -0.83968645 0.019572476 0.017819935 0.99964964 0.00027277807
-18.053102 -163.14381 -0.84603411 0.019719629 0.017401343 0.99965411 0.00027958571
-17.614992 -163.09328 -0.85834748 0.01989641 0.01732113 0.99965197 0.00027391023
-17.309883 -162.94293 -0.8680737 0.019917741 0.017596407 0.99964678 0.0002685801
-16.935265 -163.15187 -0.87380368 0.020497894 0.016416673 0.99965513 0.0002677055
-16.751019 -162.9269 -0.88153565 0.020555109 0.017080607 0.99964279 0.00026603241
-14.019972 -163.09245 -0.94763684 0.02207195 0.013170677 0.99966961 0.00028518212
-13.562812 -162.98013 -0.96201062 0.021669747 0.01318653 0.99967819 0.00028710577
-26.406477 -162.84201 -0.7420454 0.011160442 0.012370144 0.99986118 0.00030090736
-24.10317 -162.60466 -0.76219821 0.018951265 0.019692924 0.99962646 0.00025707972
-22.563513 -162.659 -0.77929384 0.018812453 0.020158835 0.99961978 0.00024971672
-16.58703 -162.892 -0.88604105 0.020517347 0.017087296 0.99964345 0.00026628253
-16.359018 -162.62851 -0.89563435 0.020476911 0.017656062 0.99963439 0.00026105941
-15.39707 -162.72983 -0.91593045 0.021213841 0.016069135 0.99964583 0.00026865929
-23.95739 -162.59265 -0.7638405 0.018942511 0.019894013 0.99962264 0.00025530122
-23.25601 -162.46977 -0.77616245 0.018518602 0.02049062 0.99961853 0.00025369602
-21.216915 -162.54407 -0.80277389 0.019090928 0.02078866 0.9996016 0.00024446755
-19.765081 -162.43629 -0.82903969 0.019096689 0.020818576 0.99960089 0.00024824266
-17.630047 -162.35097 -0.87210572 0.019483021 0.019941105 0.99961132 0.0002621329
-13.583148 -162.46193 -0.96389407 0.021907862 0.014469114 0.99965531 0.0002935775
-26.616682 -162.29262 -0.75439727 0.014176527 0.014978629 0.99978733 0.00029925795
-26.19145 -162.10109 -0.76431483 0.013968151 0.015614596 0.99978054 0.00029737208
-25.657293 -162.26982 -0.76065361 0.015135413 0.016817702 0.999744 0.00028769221
-25.321918 -162.10469 -0.7680636 0.015880145 0.017876741 0.99971408 0.00028484198
-23.472919 -162.27208 -0.78093541 0.018361455 0.020505406 0.99962109 0.00025724646
-22.017796 -162.22804 -0.79862237 0.018975263 0.021558357 0.99958748 0.00025096902
-18.785378 -162.09917 -0.85534155 0.019251185 0.021289328 0.99958801 0.00025108148
-31.930449 -161.7928 -0.75141889 0.0049780714 0.0036460841 0.99998099 0.00041784297
-26.04327 -161.98833 -0.7684378 0.014372883 0.016146645 0.99976635 0.00029520781
-25.569391 -161.87608 -0.77613074 0.015568125 0.01763623 0.99972326 0.00029065547
-25.272711 -161.98834 -0.77293688 0.016480695 0.018687911 0.99968952 0.00028274526
-25.049412 -161.87201 -0.77902299 0.017094217 0.019515123 0.99966341 0.0002841698
-24.807589 -161.83273 -0.78272438 0.017398736 0.019983059 0.99964893 0.00028239147
-24.168312 -161.80463 -0.78854358 0.017317308 0.020429229 0.9996413 0.00027396332
-23.621552 -161.76855 -0.795371 0.018081762 0.021638317 0.99960232 0.00025865019
-22.93309 -161.80914 -0.80164289 0.018338803 0.021773759 0.99959469 0.00025060898
-20.118351 -161.98354 -0.83431292 0.018882627 0.02200306 0.99957955 0.00023939721
14.429425 -161.86174 -0.92747009 -0.025218546 0.026194906 0.99933869 0.0020621463
-26.735035 -161.4939 -0.78240216 0.013244027 0.014982299 0.99980003 0.00031107999
-26.476091 -161.42392 -0.78481042 0.014070671 0.015814736 0.99977595 0.00030294026
-26.330378 -161.42677 -0.78452551 0.015019742 0.016682623 0.99974799 0.00030180902
-26.000696 -161.54306 -0.78283983 0.015215263 0.01737014 0.99973333 0.00029455664
-25.750313 -161.4843 -0.78668135 0.016081639 0.018220168 0.99970466 0.00028822059
-25.212799 -161.44022 -0.79371583 0.016962979 0.019571029 0.99966455 0.00028607546
-25.030983 -161.43895 -0.79468364 0.017329689 0.019936763 0.99965101 0.00028511541
-24.721163 -161.58008 -0.79261696 0.016964488 0.019754523 0.99966091 0.00028820976
-23.819048 -161.48502 -0.80500448 0.018192211 0.021737134 0.99959821 0.00026251152
-23.666763 -161.51892 -0.80528152 0.01819835 0.021935098 0.99959373 0.00025996871
-23.238422 -161.54668 -0.80755395 0.018076895 0.022481594 0.99958384 0.00025222302
-23.085024 -161.49295 -0.81170976 0.018134888 0.022726666 0.99957722 0.00024962402
-22.593124 -161.40337 -0.82056165 0.018239699 0.023112237 0.9995665 0.00024899206
-22.344666 -161.42313 -0.82122111 0.018223187 0.023216058 0.99956435 0.00025187735
-21.885128 -161.44995 -0.8259964 0.01874695 0.023380052 0.99955088 0.00024704621
-18.608191 -161.65559 -0.86713839 0.019117611 0.022244766 0.99956977 0.00025150648
-10.435436 -161.55002 -1.0400656 0.013455431 0.018439956 0.99973941 0.00043256927
-25.636959 -161.31383 -0.79283273 0.016448656 0.018734565 0.99968916 0.00028703138
-25.121088 -161.16838 -0.80379474 0.016895469 0.019633526 0.99966449 0.00029000835
-24.822653 -161.10509 -0.80832809 0.017411521 0.02031851 0.99964195 0.00028892187
-23.172852 -161.1969 -0.82286221 0.018397843 0.023111556 0.99956357 0.00025184857
-23.081923 -161.2251 -0.82252491 0.018339509 0.023150899 0.99956375 0.00024862224
-22.098003 -161.33617 -0.82773942 0.018538989 0.023618525 0.99954915 0.00024922332
-21.406624 -161.33736 -0.83678108 0.01885069 0.023916533 0.99953622 0.00024349619
-20.96242 -161.39276 -0.84024149 0.019000145 0.023798369 0.99953622 0.00023992386
-20.642221 -161.31146 -0.84747076 0.018923739 0.023883853 0.99953562 0.00023771577
0.18160681 -161.29263 -1.0432776 -0.0053438996 0.017620843 0.99983048 0.0011556427
-27.107435 -160.84239 -0.80035961 0.012001204 0.013353532 0.99983883 0.00031764031
-25.699411 -161.03738 -0.80376494 0.016499141 0.018377863 0.99969494 0.00029500687
-24.610823 -161.07805 -0.81155503 0.017634287 0.02062453 0.99963176 0.00028623999
-24.448196 -160.99519 -0.8173852 0.01766636 0.020796351 0.99962765 0.000287417
-24.069468 -161.03712 -0.81899655 0.017800035 0.021386616 0.99961281 0.00027809606
-23.814404 -161.02834 -0.82243454 0.017879434 0.021914711 0.99959993 0.00027189802
-22.906137 -160.91708 -0.83587468 0.018430453 0.023595395 0.99955171 0.00025085479
-22.685024 -160.90019 -0.83858275 0.018278426 0.023868117 0.99954802 0.00024908583
-22.019913 -160.85715 -0.84777385 0.018235279 0.024512094 0.99953324 0.00024740462
-21.732716 -160.81087 -0.85348111 0.018367561 0.024805423 0.99952352 0.00024717572
-21.112339 -160.92482 -0.85466141 0.018604206 0.024941748 0.99951577 0.00024308043
-20.760666 -160.87117 -0.86080617 0.018687963 0.025138976 0.99950927 0.00024157797
-20.608967 -160.85672 -0.8633076 0.018625734 0.025163179 0.99950981 0.00023973495
-20.214447 -160.94579 -0.86574084 0.018623486 0.02489629 0.99951655 0.00023846333
-19.485931 -160.96619 -0.87350672 0.018539693 0.024633294 0.99952465 0.00023671929
14.482565 -160.98734 -0.94982922 -0.027721904 0.040813971 0.9987821 0.0019716746
-27.529325 -160.72539 -0.80189091 0.010068793 0.011539075 0.9998827 0.00032748532
-26.752439 -160.6942 -0.80698365 0.013382388 0.01439134 0.99980688 0.00031625541
-26.57016 -160.66893 -0.80887836 0.013715451 0.014954244 0.99979413 0.0003179879
-26.315199 -160.63033 -0.81222808 0.014859627 0.016161233 0.99975896 0.00031537277
-25.996578 -160.759 -0.81032169 0.015945347 0.017245149 0.99972415 0.0003070755
-25.404432 -160.69226 -0.81738132 0.016905675 0.018597785 0.9996841 0.0002981452
-23.477016 -160.58466 -0.84309858 0.018632207 0.022577895 0.99957144 0.00026719953
-22.615833 -160.63524 -0.84995067 0.018226333 0.023747064 0.99955183 0.00025934467
-22.302151 -160.71718 -0.85025758 0.018165581 0.024289118 0.99953991 0.00025262541
-21.768085 -160.74251 -0.85547221 0.018377222 0.024866413 0.99952185 0.00024721416
-15.230414 -160.57919 -0.95468295 0.019008176 0.022893084 0.9995572 0.00027382624
-52.856693 -160.37756 -0.67077321 0.2662113 -0.034686033 0.96329039 0.0044124881
-28.024033 -160.30498 -0.80897176 0.0094658807 0.010569718 0.99989933 0.0003423522
-27.777748 -160.21471 -0.81187427 0.010271031 0.01116528 0.9998849 0.00034200391
-27.484316 -160.24532 -0.81363016 0.010505314 0.011396964 0.99987984 0.00033583349
-27.230518 -160.28203 -0.8129425 0.011941618 0.012352628 0.99985242 0.00032430291
-26.521999 -160.40338 -0.81596637 0.014611927 0.015151069 0.99977845 0.00031465502
-25.872194 -160.3909 -0.82181692 0.016673958 0.017430007 0.99970907 0.00030307664
-25.643946 -160.3418 -0.8256126 0.016752919 0.017892312 0.99969953 0.00030248211
-25.374973 -160.25688 -0.8300336 0.017143076 0.018488064 0.99968213 0.00030287242
-25.152941 -160.40376 -0.82827145 0.017434599 0.018911263 0.99966913 0.00030034859
-24.808489 -160.32637 -0.83509701 0.01786733 0.019742813 0.99964541 0.00029492698
-24.561199 -160.30748 -0.83897179 0.017800784 0.020164199 0.9996382 0.00029425326
-24.056114 -160.45198 -0.84085357 0.018293278 0.021408407 0.99960345 0.00028337358
-23.954014 -160.40918 -0.84311944 0.018321857 0.021612907 0.9995985 0.00028112321
-22.204536 -160.34604 -0.86636519 0.018278632 0.024421023 0.99953467 0.00025675012
-22.184399 -160.33897 -0.8668803 0.018270291 0.02443341 0.99953449 0.00025632413
-21.682375 -160.48682 -0.8665303 0.018259894 0.024940707 0.99952215 0.00025240096
-21.488949 -160.3524 -0.87378514 0.018220047 0.025191104 0.99951661 0.00025200189
-21.153233 -160.35217 -0.87847501 0.018124588 0.025297601 0.99951565 0.00024779965
-20.230656 -160.39711 -0.88365638 0.018226994 0.026084874 0.99949354 0.00024021379
-19.647272 -160.25624 -0.89479518 0.018047787 0.026377387 0.99948913 0.00023489205
-19.009577 -160.22429 -0.90347505 0.017700125 0.026486119 0.99949247 0.00024001449
-18.734205 -160.44333 -0.9009704 0.017941151 0.025700795 0.99950868 0.00024119846
-17.156059 -160.36072 -0.92427123 0.018055398 0.025431015 0.99951351 0.00024659201
-2.3465393 -160.21652 -1.109271 -0.0043262667 0.02046638 0.99978119 0.0011650262
-52.940643 -160.06654 -0.60579944 0.11749191 -0.024630826 0.99276835 0.0031637561
-28.504375 -159.97806 -0.81054693 0.0084310947 0.008977172 0.99992418 0.00036254278
-26.915493 -159.9446 -0.82320529 0.013781671 0.013488591 0.99981403 0.00032136228
-26.524113 -159.97734 -0.82643902 0.014900179 0.014894602 0.99977803 0.00031601544
-26.24592 -160.04251 -0.82777244 0.015388262 0.015707444 0.99975818 0.00031052527
-25.689798 -159.91772 -0.83651638 0.016664531 0.016959703 0.9997173 0.00031002614
-25.393736 -160.17142 -0.83258712 0.017078433 0.018151252 0.9996894 0.00030193248
-25.058239 -160.09325 -0.83909142 0.017741686 0.019080985 0.99966049 0.00029914718
-24.746672 -159.9353 -0.84727412 0.018157203 0.019504691 0.99964488 0.00029347296
-24.232496 -160.05652 -0.85077298 0.018224765 0.020840654 0.99961668 0.00029071092
-23.842115 -159.98613 -0.85715646 0.018550409 0.021398071 0.99959892 0.00028009122
-23.238899 -159.95006 -0.86618042 0.01881065 0.022475643 0.99957043 0.00026485286
-22.797642 -159.93292 -0.87240905 0.018650038 0.023206102 0.99955672 0.00025860933
-21.114611 -159.96095 -0.89172131 0.018044258 0.025520995 0.99951142 0.00024973304
-20.878998 -159.98154 -0.89414716 0.017961044 0.025696054 0.99950844 0.00024688867
-19.65835 -160.10919 -0.89941424 0.017980393 0.026548423 0.99948579 0.00023549443
-19.312101 -160.1205 -0.903723 0.017792283 0.026599936 0.99948782 0.00023767071
-19.197601 -160.05812 -0.90791607 0.017725328 0.026776088 0.9994843 0.00023734568
-17.85955 -160.07281 -0.92318356 0.017868938 0.0265346 0.99948817 0.00024672042
-17.512844 -160.19609 -0.92359602 0.017975895 0.026058231 0.99949878 0.00024710246
-17.307325 -160.09381 -0.92775196 0.017698221 0.026543487 0.99949098 0.00024917853
-2.3195024 -160.16054 -1.1105518 -0.004445788 0.020410139 0.99978179 0.0011697512
-28.542772 -159.8047 -0.81044465 0.0095724752 0.0095510371 0.99990857 0.00035800616
-28.100576 -159.64766 -0.81624919 0.011345454 0.010591432 0.99987954 0.00034629775
-26.226593 -159.79047 -0.83379066 0.015545022 0.015332352 0.99976158 0.00031262555
-25.96209 -159.88159 -0.83500683 0.016333407 0.016420618 0.99973178 0.00030750479
-25.575502 -159.87515 -0.83907431 0.016855791 0.017143346 0.99971098 0.00030854493
-25.404911 -159.88568 -0.84084779 0.01705477 0.017583827 0.99969995 0.00030306957
-24.63834 -159.6274 -0.85788703 0.01821829 0.019064981 0.99965227 0.00029089235
-24.454216 -159.68245 -0.85784829 0.018380629 0.019623177 0.9996385 0.00029153112
-24.206652 -159.67097 -0.86155158 0.01848088 0.020249009 0.99962413 0.00028798668
-23.46957 -159.78644 -0.86786455 0.018703617 0.021839464 0.99958652 0.00027388151
-23.320213 -159.784 -0.86990041 0.018637292 0.02204955 0.99958313 0.00027166057
-23.016108 -159.88953 -0.87100691 0.018761974 0.022704946 0.99956614 0.00026215863
-22.739662 -159.70657 -0.88174564 0.018735399 0.023084609 0.99955797 0.00026177263
-22.377096 -159.78706 -0.88389373 0.018636797 0.023713235 0.9995451 0.00025710414
-22.066816 -159.72842 -0.88982302 0.018518992 0.024250541 0.99953437 0.0002541802
-21.742208 -159.6707 -0.89515191 0.018320646 0.024690608 0.99952728 0.00025357341
-19.145027 -159.71097 -0.92017227 0.017459303 0.027468767 0.99947017 0.00023865151
-18.893461 -159.6116 -0.92604297 0.017289523 0.027688295 0.99946707 0.00024000478
-17.086329 -159.79626 -0.94053727 0.017438617 0.027165875 0.99947882 0.00025085369
-29.484776 -159.35519 -0.79931021 0.0099655716 0.0088867322 0.99991083 0.00035771597
-28.683216 -159.4034 -0.81126791 0.010563175 0.0089834873 0.99990386 0.00034621541
-28.404779 -159.37695 -0.81476659 0.011076759 0.0095971227 0.99989259 0.0003464325
-27.416868 -159.44405 -0.82670951 0.012998415 0.011654206 0.99984759 0.00033148765
-25.654881 -159.51852 -0.84700805 0.017085135 0.016599754 0.99971622 0.00030933265
-25.320841 -159.53163 -0.85133821 0.017204564 0.017542321 0.9996981 0.00030662329
-24.978973 -159.52695 -0.85606682 0.017986266 0.018205199 0.99967247 0.00029729231
-24.859636 -159.55457 -0.85688782 0.018090328 0.018497115 0.99966526 0.00029539262
-24.332678 -159.5845 -0.86280721 0.018355882 0.019730115 0.99963683 0.00029015102
-24.137091 -159.48866 -0.8680073 0.018540235 0.01985758 0.99963093 0.00028649834
-23.104939 -159.4612 -0.88284272 0.019047905 0.022070777 0.99957496 0.00026178447
-23.087778 -159.46181 -0.88308978 0.019050755 0.022128757 0.99957359 0.00026142699
-22.633139 -159.39433 -0.89241964 0.018875428 0.022783609 0.9995622 0.00026397922
-21.601566 -159.4819 -0.90281624 0.018305652 0.02472987 0.99952656 0.00025083116
-21.550629 -159.47969 -0.90351284 0.01825618 0.024808412 0.99952549 0.00025055007
-21.252111 -159.40384 -0.90947992 0.018158017 0.024998739 0.99952257 0.0002484885
-20.42627 -159.35861 -0.92033809 0.017817443 0.026379406 0.99949318 0.00024224426
-18.356089 -159.55737 -0.93324536 0.017249256 0.028178459 0.99945408 0.00024348551
-18.285431 -159.55772 -0.93413335 0.017279578 0.028121389 0.99945515 0.00024251864
-17.93919 -159.45836 -0.94137675 0.017149338 0.028440012 0.99944836 0.00024667577
-15.610486 -159.32983 -0.9732706 0.017537652 0.028022876 0.99945343 0.00028141492
-0.48010418 -159.45253 -1.1266419 -0.00090102968 0.018011637 0.9998374 0.0013072573
-29.106539 -159.03699 -0.80465645 0.012248986 0.0095863165 0.999879 0.00033961807
-28.952723 -159.24358 -0.80772072 0.011378315 0.0094151171 0.99989092 0.00034686833
-28.45952 -159.29185 -0.81480813 0.011649915 0.0097155217 0.99988496 0.00034423594
-28.002897 -159.02591 -0.82327747 0.013237154 0.010469143 0.9998576 0.00034104407
-27.0791 -159.00757 -0.83901089 0.015139624 0.012663593 0.99980521 0.00032776542
-26.269186 -159.13217 -0.84739053 0.016595772 0.014810579 0.99975258 0.00031716246
-24.833158 -159.28793 -0.86494756 0.018134251 0.018303683 0.999668 0.00029602472
-24.555075 -159.01352 -0.87650609 0.018511364 0.018415567 0.99965906 0.00029733058
-23.552229 -159.21222 -0.88340926 0.018734317 0.020583989 0.99961257 0.00027698188
-23.372667 -159.22902 -0.88499516 0.018829705 0.020973343 0.99960268 0.00027147151
-22.648642 -159.147 -0.89932603 0.0189831 0.022292562 0.99957126 0.00026427981
-21.955912 -159.20752 -0.90783525 0.018635778 0.023605194 0.99954766 0.00025387155
-21.429701 -159.12988 -0.91666758 0.018212153 0.024322458 0.99953824 0.00025106181
-21.145836 -159.28973 -0.91425157 0.018152617 0.025081651 0.9995206 0.00024725206
-20.916342 -159.20775 -0.9198544 0.017958224 0.025280273 0.99951911 0.00024694725
-19.452288 -159.09193 -0.9393062 0.017200204 0.027587438 0.99947143 0.00024110101
-15.953526 -159.133 -0.97439986 0.017126717 0.029084545 0.99943024 0.00027670863
-15.250862 -159.15552 -0.98307556 0.017707502 0.028676979 0.99943185 0.00029034697
-13.086538 -159.0452 -1.0201313 0.018627575 0.027404895 0.99945086 0.00030428843
-12.817463 -159.16985 -1.0216218 0.018745553 0.026602222 0.99947029 0.00030005493
-29.679619 -158.97054 -0.79475534 0.011114389 0.0087796682 0.99989969 0.00033673868
-28.979 -158.95966 -0.80718672 0.01259918 0.00964332 0.99987411 0.00033759364
-28.594093 -158.74374 -0.81379676 0.014320552 0.01053325 0.99984199 0.00033094489
-28.239727 -158.73424 -0.82084715 0.014657564 0.010688719 0.99983543 0.00033096876
-28.087839 -158.83672 -0.82265788 0.014039726 0.010467934 0.99984664 0.0003309212
-27.819141 -158.87813 -0.8264184 0.014310984 0.010982133 0.99983728 0.00033248548
-27.35747 -158.82962 -0.83584154 0.015017752 0.011912955 0.99981624 0.0003351848
-27.237282 -158.75496 -0.83861077 0.015610658 0.012338496 0.99980199 0.0003312047
-26.912153 -158.71167 -0.84604532 0.016194433 0.012971523 0.99978471 0.00032382325
-25.703625 -158.96011 -0.85901386 0.017564641 0.01580197 0.99972087 0.0003116439
-25.008068 -158.83755 -0.87428766 0.018361978 0.017261568 0.99968237 0.00030766267
-23.965235 -158.90887 -0.8871581 0.018893667 0.019413114 0.99963301 0.00028752524
-21.864035 -158.88719 -0.91848952 0.01876574 0.023362361 0.99955094 0.0002570136
-21.443455 -158.82451 -0.92568028 0.01839353 0.024036724 0.99954188 0.00025222453
-21.113869 -158.9794 -0.92450386 0.018179635 0.024748407 0.99952841 0.00024783547
-20.84396 -158.93327 -0.92957282 0.018096576 0.025192536 0.99951881 0.00024897355
-20.428663 -158.76883 -0.93935698 0.017859112 0.02585222 0.99950624 0.00024831083
-19.985744 -158.95876 -0.93901986 0.017593054 0.026708949 0.99948841 0.0002430718
-19.076153 -158.84952 -0.95133686 0.016969442 0.02827099 0.99945623 0.00023857497
-17.67856 -158.95924 -0.96218216 0.016652586 0.029560605 0.99942428 0.00024625842
-15.419392 -158.89499 -0.98788685 0.017092802 0.030167384 0.99939871 0.00028529624
-30.328772 -158.48074 -0.77715141 0.015136849 0.0096048201 0.99983931 0.00030394131
-30.246864 -158.4724 -0.77881634 0.01530149 0.0096996855 0.99983585 0.00030347324
-29.896868 -158.66806 -0.78687125 0.014260864 0.010264737 0.99984562 0.00032138536
-29.660875 -158.51172 -0.79163915 0.01479186 0.010143311 0.99983913 0.00031868974
-29.13719 -158.52455 -0.80262387 0.015348662 0.010700098 0.99982494 0.00031819654
-28.854643 -158.48381 -0.80967933 0.015502566 0.010924266 0.99982017 0.00032201139
-28.137451 -158.67102 -0.82295215 0.014686769 0.010588482 0.99983609 0.0003272742
-27.618832 -158.57205 -0.83166802 0.015795805 0.011478794 0.99980932 0.00032169712
-27.521606 -158.42978 -0.83515829 0.016472109 0.011767313 0.99979508 0.00032106988
-26.741568 -158.52252 -0.85192347 0.016932379 0.013181154 0.99976975 0.00032320438
-26.508842 -158.47635 -0.85643589 0.017175727 0.013645263 0.99975938 0.00032006489
-26.263205 -158.42409 -0.86209261 0.017519137 0.014144119 0.9997465 0.0003202034
-26.065184 -158.49237 -0.86347437 0.017642025 0.014769881 0.9997353 0.00031584493
-22.880119 -158.63412 -0.91267455 0.019193856 0.021160983 0.99959183 0.00027206523
-21.780611 -158.56902 -0.92958152 0.018905044 0.022834124 0.99956048 0.000262154
-20.760426 -158.61473 -0.94053864 0.018102705 0.025092967 0.9995212 0.00025023133
-20.474949 -158.44823 -0.94926625 0.018083386 0.025484091 0.99951166 0.00025203335
-19.491951 -158.49612 -0.96088606 0.017244169 0.027005764 0.99948651 0.00024407764
-18.972795 -158.47025 -0.96703643 0.016989062 0.027830701 0.99946827 0.00024138305
-18.652889 -158.63165 -0.96419948 0.016821288 0.028878717 0.99944139 0.00024190699
-18.501354 -158.591 -0.96763903 0.016738702 0.029102422 0.99943626 0.00024312812
-17.443316 -158.42485 -0.98499942 0.016131356 0.03056132 0.9994027 0.00024489203
-17.351631 -158.40381 -0.98688942 0.016089462 0.030629182 0.99940133 0.00024727438
-16.353371 -158.41373 -0.99507022 0.01603709 0.031692378 0.99936903 0.00026563037
-13.27258 -158.45917 -1.0317547 0.017701952 0.031251878 0.99935478 0.00029188875
-29.173361 -158.23611 -0.80288488 0.016451996 0.010506943 0.99980944 0.00031062239
-28.709209 -158.23181 -0.81366247 0.016042288 0.010449626 0.99981672 0.00031379471
-27.778088 -158.38516 -0.83125591 0.016353531 0.011428243 0.99980098 0.00032251459
-27.399431 -158.34346 -0.83824593 0.016949506 0.011947906 0.99978495 0.00031770463
-27.237095 -158.28786 -0.84280998 0.017326232 0.012254592 0.99977481 0.00031782629
-26.142408 -158.3074 -0.86562485 0.017843194 0.014260673 0.99973911 0.00032101304
-25.624706 -158.21147 -0.87703764 0.01882416 0.015432367 0.99970371 0.00031271909
-22.174179 -158.15002 -0.93847567 0.019301578 0.020934099 0.99959451 0.00027479455
-18.366152 -158.40297 -0.9766435 0.016628699 0.02905949 0.99943936 0.00024275572
-17.542828 -158.12738 -0.99459851 0.015875887 0.031195534 0.9993872 0.00024208771
-17.249218 -158.18834 -0.99553305 0.0158526 0.031157533 0.99938875 0.00024479194
-16.889633 -158.22714 -0.99701238 0.015659828 0.032007579 0.99936491 0.00025130939
-16.269997 -158.39171 -0.99630958 0.015948797 0.031994879 0.9993608 0.00026888575
-29.830814 -157.83109 -0.78943872 0.01703939 0.0085538831 0.99981821 0.00028972892
-29.59885 -157.81566 -0.79427993 0.017404886 0.0087449187 0.99981028 0.00028989266
-29.139219 -157.95828 -0.80477071 0.017104562 0.0097178789 0.99980646 0.00030090127
-29.013411 -157.94926 -0.80794698 0.017264707 0.009949741 0.99980146 0.00030198524
-28.71854 -157.80624 -0.81572562 0.01770243 0.010005995 0.99979323 0.00030017583
-28.243935 -157.83063 -0.82567257 0.017956987 0.010737122 0.99978113 0.00030370997
-27.987226 -157.91214 -0.83061206 0.018028498 0.011223663 0.99977446 0.00030654439
-27.84301 -157.92847 -0.83350956 0.018089877 0.01163992 0.99976861 0.00030916359
-27.570175 -157.83083 -0.84093833 0.018663755 0.012065244 0.999753 0.00031270183
-16.970352 -157.87363 -1.0101867 0.015596683 0.032041863 0.99936485 0.00024855728
-16.259188 -157.924 -1.0144451 0.015634893 0.03309913 0.99932975 0.00025775659
-16.130869 -157.93956 -1.0148104 0.015648734 0.033111982 0.99932915 0.00026242179
-15.671944 -157.86293 -1.0227249 0.015589898 0.034083541 0.99929738 0.00026868196
-9.7480631 -157.93654 -1.1175771 0.015210809 0.032534312 0.99935484 0.00043409938
-30.629349 -157.55624 -0.77311838 0.017036153 0.0072578653 0.99982852 0.00029209789
-30.474672 -157.50597 -0.77610487 0.01738508 0.0073138108 0.99982214 0.00028887717
-28.577204 -157.78046 -0.8192094 0.017770303 0.010031993 0.99979174 0.00030077374
-27.355761 -157.58055 -0.84865457 0.019548329 0.011955129 0.99973744 0.0003068409
-27.204208 -157.60155 -0.85204709 0.019687492 0.012403092 0.99972928 0.00030843107
-26.258619 -157.58505 -0.87292475 0.020132024 0.014216439 0.99969625 0.00030689515
-25.88213 -157.68701 -0.8817513 0.020093072 0.015245531 0.99968189 0.00031352611
-25.61763 -157.7458 -0.88539118 0.019788973 0.015282769 0.99968737 0.00030599171
-25.189442 -157.79596 -0.89407569 0.019909179 0.015883222 0.99967563 0.00030808081
-24.376381 -157.66745 -0.912359 0.020223899 0.017059857 0.99964994 0.00030037417
-24.188786 -157.55849 -0.91810012 0.020510618 0.017190123 0.99964184 0.00029727034
-23.238611 -157.68665 -0.93269402 0.020033015 0.018468816 0.99962872 0.00029183793
-16.065691 -157.76413 -1.0213418 0.015593449 0.033927131 0.99930263 0.00026401388
-15.421339 -157.69781 -1.0316426 0.015588303 0.0347712 0.99927372 0.00027114869
-13.02707 -157.66937 -1.0647131 0.016393933 0.034484055 0.9992708 0.00027051175
-30.380091 -157.49599 -0.77894139 0.017389787 0.0072327843 0.99982262 0.00028706287
-30.129345 -157.42194 -0.78385782 0.017833011 0.0072567579 0.99981463 0.00028367111
-29.916151 -157.41533 -0.78848153 0.018070491 0.0074577071 0.99980891 0.0002822275
-29.664873 -157.20386 -0.7938298 0.019005312 0.0074735861 0.99979144 0.00027644972
-28.92198 -157.35905 -0.81224608 0.018949518 0.0083750691 0.99978536 0.00028340009
-28.58202 -157.36862 -0.82118481 0.018821947 0.0089796931 0.9997825 0.00028978131
-27.345127 -157.49496 -0.84959698 0.019765496 0.011826505 0.9997347 0.00030502741
-27.089163 -157.48219 -0.85595864 0.020004632 0.012339925 0.99972373 0.00030487706
-26.786541 -157.44191 -0.86347747 0.020414405 0.012940629 0.99970788 0.0003022798
-26.106535 -157.27386 -0.88212246 0.021003271 0.014240453 0.99967796 0.00030566071
-14.723275 -157.35938 -1.0515083 0.015643638 0.037222594 0.99918455 0.00027653013
-13.223989 -157.48557 -1.0682057 0.015895443 0.035563964 0.99924099 0.0002733123
0.11765292 -157.49872 -1.1836168 0.0011474951 0.0091060363 0.99995786 0.0017618466
-28.954906 -156.95634 -0.81162971 0.020049378 0.0076543633 0.99976969 0.00027239701
-22.400173 -157.19075 -0.96180201 0.020483682 0.018993542 0.99960977 0.00028566868
-21.077871 -157.1022 -0.98454779 0.019466583 0.020416789 0.99960202 0.00027561377
-16.603838 -156.94923 -1.0471567 0.015603506 0.032883324 0.99933738 0.00027098859
-35.239193 -156.6152 -0.66041762 0.014575645 -0.0015122571 0.99989265 0.00027616619
-30.61875 -156.73242 -0.7688238 0.019040652 0.0052354457 0.99980497 0.00026365081
-30.299231 -156.68025 -0.77675468 0.019852245 0.0057266606 0.9997865 0.00026321638
-30.238701 -156.63351 -0.77814025 0.020032464 0.0056477264 0.9997834 0.00026133037
-29.211651 -156.63837 -0.80394405 0.021075863 0.0070050159 0.99975336 0.00026040158
-28.208817 -156.76904 -0.83149272 0.020985054 0.0083367275 0.99974501 0.00027434915
-26.81127 -156.84303 -0.86966664 0.021806948 0.011578012 0.99969518 0.00029527632
-32 -156.30243 -0.72375143 0.01932163 0.0040022731 0.99980533 0.00025669509
-29.2997 -156.32512 -0.80075866 0.021707926 0.006210099 0.99974507 0.0002518172
-28.607298 -156.53867 -0.82041073 0.021437485 0.0074087572 0.99974275 0.00026440716
-35.335804 -156.18881 -0.65826941 0.014417264 -0.0046776254 0.99988514 0.00027503373
-31.699749 -156.05159 -0.73051983 0.019978974 0.0037655046 0.99979329 0.00025809303
-31.207722 -156.22406 -0.74703175 0.020218296 0.0045218263 0.99978536 0.00025040066
-30.993399 -156.11552 -0.75146937 0.020947363 0.0044864938 0.99977052 0.00024707604
-30.834887 -156.00299 -0.75514632 0.021428365 0.0045921956 0.99975985 0.00024745587
-28.945158 -156.29152 -0.81027716 0.021996092 0.0065376651 0.99973667 0.00025651752
-28.26372 -156.21271 -0.82945734 0.022593705 0.0075578047 0.99971616 0.00026016819
-28.010876 -156.29507 -0.83632833 0.022575423 0.0079925442 0.99971318 0.0002627823
-32.357391 -155.84148 -0.71016288 0.019758807 0.0034913006 0.99979866 0.00025832793
-31.999287 -155.76721 -0.71905869 0.020348415 0.0035515127 0.99978662 0.00025309509
-31.388968 -155.99506 -0.73858666 0.020529352 0.0040669502 0.99978095 0.00025076116
-31.049242 -155.75041 -0.74608272 0.02102589 0.0035709492 0.99977255 0.00024634163
-30.769463 -155.95943 -0.75648052 0.021426294 0.0043763965 0.99976087 0.00024638078
-30.462614 -155.86328 -0.76505947 0.021645276 0.0042643188 0.99975663 0.00024705063
-30.125469 -155.82076 -0.77438974 0.021764299 0.0040137274 0.99975508 0.00024808341
-29.704056 -155.82523 -0.78696585 0.021930248 0.0042054849 0.99975067 0.00024555167
-29.576689 -155.79445 -0.79033178 0.022266936 0.0043968991 0.99974239 0.00024260359
-28.638779 -155.73917 -0.81717342 0.023604592 0.0060323495 0.99970317 0.0002468281
-33.07457 -155.4465 -0.6881029 0.020284954 0.0022727645 0.99979168 0.00024996698
-32.740818 -155.43869 -0.69592977 0.020372504 0.002936135 0.99978817 0.00024784458
-31.850491 -155.68336 -0.72258323 0.020766098 0.0035424198 0.99977809 0.00024837817
-30.723312 -155.55627 -0.75356543 0.021668348 0.0035238077 0.99975902 0.00023815637
-30.458746 -155.54712 -0.76113003 0.022047216 0.0035904916 0.99975049 0.00023902372
-29.763786 -155.53172 -0.78176248 0.022588098 0.0040558372 0.99973661 0.00023850804
-29.260372 -155.53949 -0.79606688 0.023311025 0.004653546 0.99971741 0.00023927505
-28.967278 -155.50867 -0.80492544 0.023665391 0.0049709138 0.99970758 0.00023625807
-28.795696 -155.58778 -0.81104982 0.02380454 0.0054284702 0.99970192 0.00023961591
-28.3524 -155.4792 -0.82403839 0.024204727 0.0058048223 0.99969018 0.00024438693
-27.981071 -155.49611 -0.83634907 0.024566846 0.0067157215 0.99967563 0.00024816045
-27.842899 -155.43082 -0.84085619 0.024887718 0.006923785 0.99966627 0.00025084533
-27.166037 -155.41754 -0.86340505 0.025671529 0.0085966382 0.99963349 0.00025727003
-33.13937 -155.22018 -0.68560052 0.019720383 0.0014997569 0.99980444 0.00024601759
-31.845665 -155.31206 -0.71866548 0.020943966 0.0029889902 0.99977618 0.00024391073
-31.45796 -155.15498 -0.72832513 0.021221351 0.0027152675 0.99977112 0.00023986695
-30.368282 -155.15303 -0.75965202 0.022462698 0.0033780548 0.99974197 0.00024022417
-30.120651 -155.25612 -0.76870823 0.022645231 0.0034962569 0.99973744 0.00024027785
-29.847954 -155.27379 -0.77671736 0.022819072 0.0037096811 0.99973273 0.00024225668
-29.576767 -155.27667 -0.78527206 0.023510627 0.0043263258 0.99971426 0.00023899561
-29.066374 -155.11739 -0.79946125 0.0244247 0.0048794183 0.99968976 0.00024113592
-28.674511 -155.20113 -0.81098694 0.024798311 0.005522579 0.99967724 0.00023810056
-28.489326 -155.1024 -0.81618476 0.025196314 0.0057343259 0.99966609 0.00023644869
-28.055996 -155.23259 -0.83194667 0.025164695 0.0063106068 0.99966341 0.00024555673
-27.797571 -155.22095 -0.8415727 0.025374286 0.0067518111 0.99965525 0.00024949573
-27.410755 -155.37694 -0.85536283 0.025580816 0.0079980046 0.99964076 0.0002540547
-26.75968 -155.29185 -0.87765807 0.026127065 0.0092479782 0.99961585 0.00025795837
-26.145285 -155.22357 -0.89871019 0.026298614 0.010396664 0.99960005 0.00026240025
1.2079154 -155.20903 -1.1517549 -0.010052133 -0.019245485 0.99976426 0.0027827325
-33.034054 -154.82181 -0.68593287 0.019841079 0.00086875394 0.99980277 0.00024346611
-32.642818 -154.91087 -0.69475329 0.020400826 0.0017686248 0.99979031 0.0002429654
-32.220963 -155.05904 -0.70687056 0.020513808 0.0024803206 0.9997865 0.00024353094
-31.686687 -155.05045 -0.72098279 0.020999322 0.0026560759 0.99977595 0.00023969417
-31.300196 -154.97867 -0.73108262 0.021454198 0.0025117013 0.99976665 0.00023907251
-30.818916 -155.01949 -0.74548161 0.022080595 0.0029202707 0.99975193 0.00023953199
-30.218861 -154.98888 -0.76315463 0.022815198 0.0034152938 0.99973387 0.00023760935
-29.252331 -155.01302 -0.79317617 0.024307331 0.0045392048 0.99969423 0.00023828907
-28.952784 -154.8134 -0.80115312 0.024990866 0.0049490998 0.99967545 0.00023684787
-28.314941 -154.95999 -0.82258034 0.025654312 0.0061293966 0.99965209 0.00023981107
-28.05546 -154.9151 -0.82976937 0.025892461 0.0063443738 0.99964458 0.00024061355
-27.757273 -154.94669 -0.8407343 0.026055444 0.006753264 0.99963766 0.00024303165
-27.593336 -155.06731 -0.847278 0.025928866 0.0070940591 0.99963862 0.00024603659
-27.076826 -155.02716 -0.86492956 0.02658191 0.0080207232 0.99961448 0.00024967545
-26.851297 -155.00766 -0.87354827 0.026674608 0.0084768254 0.99960822 0.00025032819
-26.434702 -155.00366 -0.88815516 0.026738985 0.0092996061 0.99959922 0.0002522108
-26.226881 -154.9593 -0.89547569 0.026792085 0.0096593173 0.99959433 0.0002541682
-25.998468 -154.96889 -0.90284181 0.026895715 0.010284407 0.99958533 0.00025546658
31.519577 -154.83105 -1.7587413 0.84110796 -0.064748719 0.53697771 0.025527917
-32.907322 -154.63171 -0.68739408 0.020064645 0.00059884001 0.99979848 0.00024369784
-32.525944 -154.69299 -0.69590962 0.020334534 0.001299858 0.9997924 0.00024210343
-32.200459 -154.66479 -0.70381838 0.020685574 0.0015235096 0.99978489 0.00024084123
-31.99296 -154.63167 -0.70961267 0.021027945 0.0021030463 0.99977666 0.00023747209
-31.637005 -154.56418 -0.71846938 0.021300022 0.0025633054 0.99976987 0.00023455248
-31.339581 -154.54185 -0.72685361 0.021719988 0.0026854107 0.99976051 0.00023515453
-30.738552 -154.79192 -0.74584639 0.022308331 0.0029820027 0.99974668 0.00023966737
-30.562342 -154.64909 -0.75002474 0.022810819 0.0032502143 0.99973452 0.00023914358
-30.084005 -154.50696 -0.7635991 0.023653938 0.003727345 0.99971324 0.0002359935
-29.897594 -154.55396 -0.77004188 0.02394134 0.0038606625 0.99970591 0.00023480099
-29.241514 -154.72134 -0.79182351 0.024600511 0.004618594 0.99968672 0.00023368788
-28.812366 -154.78409 -0.80526805 0.025292819 0.0052180081 0.99966645 0.00023670901
-28.509346 -154.57947 -0.81423336 0.026008725 0.0054921601 0.9996466 0.00023342036
-28.403996 -154.55806 -0.81751561 0.026226746 0.0056124381 0.99964029 0.00023367534
-27.345354 -154.71909 -0.85496199 0.026832165 0.0073355585 0.99961305 0.00024280878
-26.574219 -154.57307 -0.88254994 0.027476365 0.008612657 0.99958533 0.00024563581
-26.297049 -154.71722 -0.89340818 0.027274635 0.0092242546 0.99958539 0.00025287463
-25.955139 -154.70337 -0.90518868 0.027456695 0.0098477313 0.99957448 0.00025486108
-25.574928 -154.57791 -0.91886687 0.027790515 0.010721096 0.9995563 0.00025540765
-25.456001 -154.67667 -0.92388624 0.02744838 0.01096071 0.99956316 0.00025911065
-24.308674 -154.78372 -0.96329439 0.026775653 0.013492305 0.9995504 0.00026789331
-33.788139 -154.30502 -0.66464055 0.018211838 -0.0024095254 0.99983126 0.00026150874
-32.843449 -154.44963 -0.68794101 0.019736325 4.762911e-05 0.99980521 0.00024434706
-32.26334 -154.30424 -0.69985217 0.020499937 0.0013322348 0.99978894 0.00024207958
-31.575914 -154.2838 -0.71791905 0.021470459 0.0021985301 0.99976707 0.00023101615
-31.225954 -154.26257 -0.72850627 0.022154732 0.0029632351 0.99975014 0.00023636915
-31.028339 -154.47252 -0.73454928 0.022380626 0.0029469864 0.99974519 0.00023609515
-30.74123 -154.37671 -0.74234086 0.022910757 0.0031824957 0.99973243 0.0002342715
-30.430992 -154.35789 -0.75208497 0.023327116 0.0034427317 0.99972194 0.00023906952
-29.886404 -154.43434 -0.76913738 0.023959545 0.0038086793 0.99970567 0.00023510361
-29.518255 -154.33493 -0.78123134 0.024654754 0.0043136966 0.99968672 0.00023189269
-27.449762 -154.44989 -0.85104567 0.027105125 0.0071213855 0.99960721 0.00023914796
-27.108967 -154.38605 -0.86304337 0.027639115 0.0075358087 0.99958956 0.00024245272
-34.043995 -154.14662 -0.65789062 0.018183859 -0.0020478561 0.99983257 0.0002699609
-33.895096 -153.95766 -0.65857309 0.018267632 -0.0016582959 0.99983174 0.00027249879
-32.835541 -154.08525 -0.68365884 0.0197792 -0.00037850704 0.99980432 0.00024731897
-31.879299 -154.02505 -0.70697105 0.021334313 0.0019122019 0.99977058 0.00023929181
-31.714006 -153.99928 -0.71117103 0.021687711 0.0021486664 0.99976248 0.00023707542
-31.38624 -154.08661 -0.72132421 0.022078576 0.0025131695 0.99975306 0.00023157266
-30.398506 -154.04103 -0.75006002 0.023631005 0.00358597 0.99971431 0.00023174289
-30.160969 -153.94778 -0.75658709 0.024116404 0.0038048578 0.99970192 0.0002328923
-29.209219 -154.14146 -0.78996205 0.025293218 0.0046721259 0.99966913 0.000229545
-28.661047 -154.09038 -0.80665487 0.026212541 0.0052558039 0.99964255 0.00022944124
-28.128027 -154.04211 -0.82446373 0.027198203 0.0058618938 0.99961287 0.00023186505
-27.157969 -154.00807 -0.85974437 0.028017698 0.0073339418 0.9995805 0.00023690703
-26.880653 -154.03679 -0.8692652 0.02829038 0.0077894609 0.99956942 0.00023799343
-26.283756 -153.94467 -0.89240015 0.028752651 0.0087140054 0.99954855 0.00024076975
-26.041267 -153.9847 -0.90186006 0.028680602 0.0092061097 0.99954623 0.00024567876
-25.584328 -154.07625 -0.91978174 0.028754313 0.01000803 0.9995364 0.00025049178
-24.627522 -154.13669 -0.95655096 0.028267637 0.012022282 0.99952811 0.00025431594
-34.100849 -153.8002 -0.65465295 0.017793862 -0.0019606298 0.99983978 0.00027329341
-33.815315 -153.73036 -0.65898412 0.018431121 -0.00098504673 0.99982965 0.00027016518
-33.211914 -153.77638 -0.67165864 0.01942398 -0.00058714754 0.99981117 0.00025770237
-32.944649 -153.85747 -0.67865717 0.019783638 -0.00022731457 0.99980426 0.00024970554
-32.500549 -153.67537 -0.68722463 0.020013765 0.00031759098 0.99979967 0.00024849831
-31.513863 -153.81195 -0.71536422 0.022057757 0.0023853423 0.99975383 0.00023534137
-31.065781 -153.71376 -0.72706664 0.022711363 0.0029390652 0.99973774 0.00023219601
-30.791679 -153.72285 -0.73565662 0.023221837 0.0035602984 0.99972397 0.00023189487
-29.905092 -153.67845 -0.76193011 0.024689682 0.0042133606 0.9996863 0.00023078221
-28.921019 -153.71545 -0.79544961 0.026077952 0.0051452578 0.99964666 0.00022801419
-28.675285 -153.77115 -0.80481821 0.026381047 0.0053870478 0.99963742 0.00022636549
-28.467983 -153.72971 -0.81166142 0.02674281 0.0056491592 0.9996264 0.00022501356
-28.150358 -153.76495 -0.82277721 0.027435645 0.0058617783 0.99960637 0.00022747598
-27.496737 -153.79901 -0.84559453 0.028257865 0.0067230398 0.99957806 0.00023013997
-27.10533 -153.89113 -0.8611784 0.028232099 0.0073635955 0.99957424 0.00023511355
-26.604038 -153.81615 -0.87895519 0.028862996 0.008148659 0.99955016 0.00023698328
-26.317867 -153.8813 -0.89015239 0.028941536 0.0087100416 0.99954313 0.000239264
-26.065536 -153.74176 -0.90050769 0.02877776 0.0088686766 0.99954647 0.00024254958
-24.095812 -153.71873 -0.97756678 0.028667057 0.012151126 0.99951518 0.00025470706
1.1702068 -153.63535 -1.0797839 -0.023977702 -0.027715662 0.99932826 0.0031753867
-34.509075 -153.45094 -0.6474871 0.016211746 -0.0017786104 0.99986702 0.00026800972
-34.335102 -153.43906 -0.64977193 0.016654581 -0.0011909426 0.99986058 0.00026713172
-34.030716 -153.40849 -0.65470356 0.017713066 -0.00080415269 0.99984276 0.00026946777
-33.478165 -153.56216 -0.6650185 0.01896791 -0.00019390031 0.99982005 0.0002640204
-32.8335 -153.44037 -0.6788097 0.019163547 -5.8664147e-05 0.99981636 0.00025176251
-32.593704 -153.56387 -0.68505323 0.020144861 0.0005058347 0.99979693 0.00024973263
-31.554428 -153.5103 -0.70948267 0.021688668 0.0019524365 0.99976289 0.00023977934
-29.160271 -153.39677 -0.78482419 0.025887875 0.0052517145 0.99965107 0.00022484042
-28.005348 -153.47122 -0.82572919 0.027809858 0.0062636151 0.99959362 0.00022600639
-27.771702 -153.52834 -0.83407086 0.028336393 0.0063640033 0.99957818 0.00022728664
-26.384134 -153.45772 -0.8873772 0.029242201 0.0080925552 0.99953961 0.00023608794
-25.324612 -153.50752 -0.92900854 0.029215118 0.009740035 0.99952567 0.00024404058
-25.171701 -153.49634 -0.93519723 0.029184597 0.0099434154 0.99952459 0.00024478408
-35.157448 -153.12077 -0.63765508 0.016299009 -0.00098377641 0.99986666 0.00026324796
-34.493645 -153.20041 -0.64764637 0.016213777 -0.00081964611 0.99986821 0.00026274621
-33.763378 -153.08099 -0.65894181 0.017954078 0.0005955181 0.99983865 0.00026262799
-33.422508 -153.20656 -0.66477507 0.018767351 0.00062269118 0.99982369 0.00026422195
-33.190903 -153.14552 -0.66925633 0.018661497 0.00068113854 0.99982566 0.00026111372
-32.776966 -153.17859 -0.67870104 0.019516367 0.0010679038 0.99980897 0.00025564016
-32.580078 -153.22581 -0.68373573 0.019826792 0.0010364843 0.99980289 0.00025019879
-31.344536 -153.01765 -0.71308994 0.022102948 0.0028354998 0.99975169 0.00023609278
-31.037094 -153.11453 -0.72209001 0.022723949 0.0032783379 0.99973643 0.00023250813
-30.614128 -153.12093 -0.73524266 0.023540262 0.0039726957 0.99971497 0.00022943616
-30.062309 -153.23137 -0.75412524 0.024363652 0.0045511583 0.9996928 0.00022936438
-29.853888 -153.19969 -0.76074857 0.024865577 0.0049121077 0.99967873 0.0002296976
-29.652599 -153.0937 -0.76577115 0.025252486 0.0050748922 0.99966824 0.0002287477
-29.284534 -153.27539 -0.77972853 0.025877556 0.0052663106 0.99965125 0.000228317
-28.918356 -153.17192 -0.79213077 0.026354879 0.0056851273 0.99963647 0.000223076
-28.736464 -153.06514 -0.79750633 0.026635818 0.0058907764 0.99962783 0.00022312209
-27.708773 -153.1938 -0.83486521 0.028528269 0.0065984032 0.9995712 0.00022608273
-27.473356 -153.1906 -0.84346509 0.028908199 0.006865053 0.99955851 0.00022681875
-24.627657 -153.23175 -0.95805025 0.029414875 0.010520532 0.9995119 0.0002478417
-34.809704 -152.95551 -0.6432451 0.015657743 -0.00047695672 0.99987727 0.00026385381
-34.717655 -152.93211 -0.64446962 0.015668118 -0.00016128887 0.99987721 0.00026194612
-34.455658 -152.99422 -0.64788532 0.016004408 -0.00029460606 0.99987185 0.00026308687
-34.169571 -152.8707 -0.65236247 0.016838092 0.00072486344 0.99985796 0.00026139879
-33.743942 -152.76335 -0.65896463 0.017238675 0.00109136 0.99985081 0.00026225156
-33.506104 -152.77812 -0.66290134 0.017947895 0.001486515 0.99983782 0.00026517102
-32.846889 -152.86096 -0.67614716 0.019223807 0.0017918519 0.99981362 0.00025719262
-32.226746 -152.82755 -0.68962044 0.020341849 0.0024696228 0.99979001 0.00025085211
-31.827492 -152.7747 -0.69952118 0.021044329 0.0027548315 0.99977475 0.00024328074
-30.625551 -152.93042 -0.73313582 0.023463015 0.0038876841 0.99971718 0.00022941637
-30.472305 -152.8575 -0.73731148 0.023650941 0.0042173062 0.99971139 0.00022771928
-29.636326 -152.97673 -0.76508647 0.025206406 0.0051182411 0.99966919 0.00022837485
-29.152969 -152.95439 -0.78123617 0.026185067 0.0055955611 0.99964148 0.00022428995
-28.570742 -152.90242 -0.80226862 0.026981436 0.0061860164 0.9996168 0.00022409701
-28.422827 -152.75755 -0.80722129 0.027288314 0.0064155064 0.99960703 0.00022258685
-26.408333 -152.795 -0.88418889 0.029616233 0.007791684 0.99953097 0.00023251391
-34.214424 -152.66614 -0.65242565 0.016435133 0.0012412786 0.99986416 0.00025753674
-33.367805 -152.44478 -0.6657241 0.017949613 0.0026377663 0.99983543 0.00026218931
-33.192585 -152.53516 -0.66876453 0.018464169 0.0026262894 0.99982607 0.00026255191
-32.675076 -152.63321 -0.67940533 0.019486308 0.0026361754 0.99980664 0.00025634948
-32.265347 -152.42172 -0.6877284 0.02021176 0.0036971341 0.99978888 0.0002547536
-31.849607 -152.51875 -0.69765073 0.021025311 0.0035906786 0.99977249 0.00024732444
-31.682739 -152.5378 -0.70210236 0.021276971 0.003685141 0.99976683 0.00024408544
-31.221125 -152.46068 -0.71444404 0.022194946 0.0041083689 0.99974525 0.00023503152
-30.985559 -152.51566 -0.72091377 0.022745442 0.0042766342 0.99973214 0.00023324939
-30.830015 -152.55554 -0.72561717 0.023001289 0.0043703965 0.99972588 0.00023055138
-30.345232 -152.46878 -0.73830134 0.023835143 0.0046934779 0.9997049 0.00022966941
-29.598406 -152.54002 -0.76271909 0.025098825 0.0053457655 0.99967068 0.00022434354
-29.21632 -152.59467 -0.77710521 0.025912544 0.0058465037 0.99964714 0.00022565821
-28.96986 -152.65497 -0.78482026 0.026554046 0.0059669381 0.99962956 0.00022287454
-28.565643 -152.42142 -0.79735655 0.027143696 0.0064867986 0.99961048 0.00022095047
-27.089548 -152.52625 -0.85578752 0.029374273 0.0074186763 0.99954093 0.00022227899
-26.806143 -152.4021 -0.86589384 0.02950195 0.0076171891 0.99953568 0.00022378298
-26.601555 -152.60892 -0.8746962 0.029487746 0.0075758649 0.99953645 0.00022781745
-23.91428 -152.51933 -0.98707336 0.030195637 0.011269022 0.99948049 0.00024225211
-35.564163 -152.19223 -0.63596195 0.014117284 0.0012682871 0.99989957 0.0002670942
-35.317665 -152.37361 -0.63787621 0.014761678 0.0009545256 0.99989057 0.00026390236
-32.121002 -152.16507 -0.69071865 0.020344257 0.0043943301 0.9997834 0.00025473145
-31.991207 -152.16673 -0.69417971 0.020685395 0.0046240422 0.99977535 0.00025102642
-31.36268 -152.22993 -0.71007407 0.021861395 0.0047579207 0.99974966 0.00024053903
-31.132954 -152.20612 -0.71603543 0.022361204 0.0049558361 0.99973768 0.0002362847
-30.709995 -152.24649 -0.72742486 0.023084238 0.0049498836 0.99972129 0.00023233092
-30.097534 -152.20474 -0.74465489 0.024185942 0.0055596847 0.99969202 0.00023077001
-28.550396 -152.24318 -0.79543239 0.027122669 0.0065390998 0.99961072 0.00022090774
-28.447342 -152.10925 -0.79796201 0.027343294 0.006832568 0.99960274 0.00022064676
-28.023571 -152.14069 -0.81357658 0.027846267 0.0071667675 0.99958652 0.00021824111
-27.662058 -152.20628 -0.82770109 0.02856469 0.0073411232 0.99956501 0.00022036703
-27.544649 -152.17825 -0.83223403 0.028735396 0.0074092182 0.99955958 0.00022025354
-27.205755 -152.25903 -0.84827238 0.02896698 0.0075927372 0.99955153 0.00022027644
-24.27404 -152.3409 -0.97134894 0.03048471 0.010489195 0.99948019 0.00023994122
-36.090939 -151.873 -0.63125783 0.012961921 0.0019852601 0.99991399 0.00027116801
-35.777237 -151.84776 -0.63556182 0.013633491 0.0028524159 0.99990296 0.00026523956
-35.639015 -151.91231 -0.63671702 0.013902407 0.0025545706 0.9999001 0.00026513857
-35.122108 -151.92381 -0.64224231 0.014766997 0.0031209439 0.9998861 0.00026073275
-35.051582 -151.91316 -0.64377928 0.014939396 0.0034722514 0.9998824 0.00025704241
-34.548172 -151.95607 -0.65093124 0.015548646 0.003116044 0.99987423 0.00025418011
-33.965275 -151.97885 -0.65914387 0.01623434 0.0035878432 0.99986178 0.00025649331
-33.657452 -151.87411 -0.6639092 0.01671334 0.0042316522 0.99985135 0.00025855386
-33.323406 -151.84605 -0.66906285 0.017541951 0.004642372 0.99983537 0.00025957663
-33.268745 -151.91762 -0.66956139 0.017859999 0.0046752007 0.99982959 0.00025833762
