# .PCD v0.7 - Point Cloud Data file format
VERSION 0.7
FIELDS x y z
SIZE 4 4 4
TYPE F F F
COUNT 1 1 1
WIDTH 1483
HEIGHT 1
VIEWPOINT 0 0 0 1 0 0 0
POINTS 1483
DATA ascii
-7.5912094 15.397634 -0.37175259
-7.4584455 15.579506 -0.35022718
-6.9600348 15.507313 -0.3947483
-6.8596802 15.463778 -0.44532475
-6.4835057 15.523133 -0.41954732
-6.0947466 15.532404 -0.41345653
-5.9021983 15.448255 -0.42052057
-5.5583663 15.52079 -0.43923742
-5.2784462 15.452518 -0.41694584
-4.8910875 15.454883 -0.39295796
-4.5765314 15.413943 -0.51184022
-4.3406506 15.511078 -0.41526556
-3.9426284 15.409553 -0.48022285
-3.8400271 15.472462 -0.49848783
-3.4808657 15.378761 -0.50649953
-3.0999932 15.437133 -0.41542074
-2.8088992 15.445194 -0.41412735
-2.5758753 15.479366 -0.40405169
-2.2480063 15.417351 -0.41490838
-1.9839129 15.460893 -0.43705171
-1.7026713 15.442661 -0.43958831
-1.2997539 15.409917 -0.3891671
-1.0588608 15.481356 -0.39921197
-0.73326081 15.441796 -0.40236965
-0.46060705 15.466579 -0.40552154
-0.18930773 15.505089 -0.39932209
0.10761969 15.499784 -0.37016162
0.48152819 15.437275 -0.37758628
0.73197359 15.381721 -0.41087162
0.97096044 15.455646 -0.38321716
1.365239 15.545918 -0.41076875
2.0471768 15.336638 -0.34617129
3.9155192 15.344522 -0.37954053
5.6183662 15.494665 -0.41678941
6.8202229 15.464513 -0.33592546
9.3608723 15.512779 -0.44249362
9.8434315 15.40456 -0.47692853
11.905388 15.493481 -0.44736919
12.271488 15.514233 -0.39360151
12.544757 15.47543 -0.44854221
12.64372 15.423686 -0.45048961
13.056686 15.351368 -0.45090511
13.453341 15.49429 -0.46835566
13.713395 15.441162 -0.38017794
13.912311 15.456679 -0.4494037
14.235164 15.487656 -0.43719706
14.652165 15.400719 -0.45578691
14.875465 15.379814 -0.49991608
15.257721 15.350209 -0.48705482
15.52368 15.416227 -0.48136449
15.768664 15.492294 -0.46995774
16.294819 15.4048 -0.54267377
16.63414 15.480643 -0.531214
16.958401 15.52562 -0.48596811
17.290131 15.493948 -0.50824511
17.404545 15.569648 -0.4879714
17.914965 15.407958 -0.50125438
18.146103 15.482553 -0.49793196
18.887001 15.38818 -0.3551046
19.96644 15.451388 -0.56963271
20.270811 15.56651 -0.59853005
20.940571 15.336409 -0.50258762
21.128448 15.457849 -0.55040276
21.453228 15.464005 -0.52812499
21.688679 15.443154 -0.56784683
22.100971 15.482279 -0.53014243
22.889767 15.428122 -0.54983938
23.238686 15.554454 -0.54906142
23.611214 15.455078 -0.5159024
23.787376 15.509224 -0.54335684
24.182312 15.447858 -0.49217767
24.379372 15.483911 -0.4971433
24.822786 15.40704 -0.56906867
25.085188 15.492762 -0.52452695
25.978214 15.398725 -0.5969941
-42.289585 15.835228 -0.52970135
-25.854919 15.837192 -0.46501002
-23.095881 15.635759 -0.59776467
-22.309713 15.725248 -0.45641673
-22.109058 15.745653 -0.40557724
-20.547077 15.786319 -0.59942633
-20.363783 15.660081 -0.58780694
-19.640457 15.839306 -0.56466997
-19.331165 15.732503 -0.56060779
-18.719547 15.610505 -0.45259833
-17.837763 15.660676 -0.52869058
-17.432541 15.644893 -0.46011567
-17.348782 15.657964 -0.54618168
-16.986759 15.678968 -0.44649577
-16.646111 15.624619 -0.58806336
-16.422924 15.832721 -0.45440397
-14.44943 15.71898 -0.55220562
-14.181132 15.787305 -0.4174929
-13.926758 15.759494 -0.47850955
-13.753538 15.671958 -0.46610552
-12.969662 15.726949 -0.49881056
-12.796656 15.857371 -0.40617275
-12.430172 15.765979 -0.47234312
-12.190028 15.723438 -0.43015319
-11.808989 15.784006 -0.44514847
-11.648467 15.804346 -0.488666
-11.369949 15.685466 -0.55700636
-10.912391 15.733272 -0.51144737
-10.796877 15.728333 -0.56434226
-10.477077 15.719821 -0.52908897
-9.4100256 15.745584 -0.45697895
-9.2835732 15.855137 -0.5118804
-8.9191523 15.832308 -0.51382309
-8.4874334 15.760618 -0.49662328
-8.284853 15.694365 -0.55811137
-8.0155048 15.621081 -0.40277013
-7.5331216 15.78433 -0.45072317
-7.4655957 15.752441 -0.39054891
-6.773447 15.838802 -0.52827466
-6.4203582 15.895439 -0.31891227
-6.0261493 15.744024 -0.42688873
-5.9533677 15.728835 -0.42491743
-5.5064507 15.72576 -0.46019095
-5.3813581 15.604608 -0.46065295
-4.8984122 15.847392 -0.46899018
-4.6198158 15.703793 -0.53457445
-4.3589311 15.806548 -0.52854961
-4.097569 15.843852 -0.40487394
-3.7383714 15.838217 -0.44254574
-3.4179285 15.779571 -0.47036269
-3.1203992 15.799615 -0.42019305
-2.8525443 15.801275 -0.41517234
-2.5669415 15.765294 -0.41771546
-2.264699 15.767798 -0.40248036
-1.9579514 15.774679 -0.41397232
-1.6523699 15.775426 -0.43548042
-1.3574016 15.785764 -0.37277368
-1.0681963 15.720759 -0.43555382
-0.76440978 15.745274 -0.37631848
-0.43441549 15.735984 -0.41104534
-0.23543978 15.742733 -0.48106042
0.068547562 15.678469 -0.41932642
0.35187617 15.635974 -0.3639617
0.7281639 15.804713 -0.35075405
0.93093562 15.648007 -0.31541893
1.2841672 15.795628 -0.40106758
3.2494357 15.813293 -0.31322578
5.2146931 15.614388 -0.34880394
11.839151 15.758604 -0.43878198
12.087851 15.766471 -0.44310921
12.596907 15.621646 -0.48761871
12.791583 15.701072 -0.45682693
12.93622 15.779646 -0.43202418
13.679989 15.745144 -0.44542819
13.906694 15.708321 -0.4228268
14.818048 15.741539 -0.49315208
15.033831 15.779247 -0.43685079
15.341995 15.787341 -0.48260412
15.704384 15.846257 -0.41118431
15.958438 15.770488 -0.46796378
16.400482 15.838524 -0.49585089
16.72991 15.793797 -0.52590036
16.917406 15.791239 -0.52751738
17.379234 15.833035 -0.48060727
17.418812 15.878495 -0.509426
17.834808 15.764798 -0.53654003
18.114452 15.76173 -0.50189871
18.300331 15.741344 -0.45111299
18.743208 15.63149 -0.57438499
19.411888 15.638926 -0.52678531
19.924267 15.634556 -0.5470717
20.205723 15.808287 -0.55633038
20.907253 15.612528 -0.46664533
21.479807 15.70663 -0.536883
21.823563 15.750521 -0.53133667
22.014023 15.771224 -0.4988741
22.276854 15.689385 -0.55975509
22.684887 15.626326 -0.4232403
22.877266 15.737221 -0.52394682
23.301674 15.732413 -0.51594561
23.532394 15.80553 -0.56984293
23.74292 15.770926 -0.55732983
24.131247 15.742686 -0.52726966
24.369263 15.769159 -0.53792387
24.800455 15.662842 -0.52669001
25.41258 15.791735 -0.5232355
26.19445 15.759626 -0.5297752
31.112278 15.665956 -0.35771322
34.578613 15.640148 -0.40424231
-30.854477 15.975591 -0.5906083
-23.457348 15.94846 -0.59887743
-22.842991 16.074389 -0.54714721
-21.350956 16.048899 -0.40323144
-20.449272 16.078184 -0.56721902
-20.10763 16.170338 -0.48162162
-17.182898 16.150049 -0.58779776
-16.048994 16.004782 -0.45017549
-15.810061 16.167782 -0.39211431
-15.504539 16.181425 -0.37491861
-14.31821 16.177559 -0.59061098
-14.035269 15.938541 -0.51342022
-13.687309 16.036282 -0.5074718
-13.459569 16.104242 -0.5892275
-13.077356 16.039351 -0.59291345
-12.785851 16.054935 -0.49220917
-12.404528 16.028116 -0.4978506
-12.045095 16.189344 -0.58088541
-11.865696 15.943694 -0.48551956
-11.561595 16.080883 -0.45527393
-11.108955 16.089819 -0.53941578
-11.021009 16.036144 -0.47450811
-10.380878 16.03718 -0.5024882
-10.021867 16.010351 -0.40912291
-9.7274456 16.184135 -0.55205655
-9.4591627 15.956576 -0.59334403
-9.1561337 16.085657 -0.48057041
-8.7463102 16.107866 -0.532884
-8.4220963 15.98743 -0.48030671
-8.284008 16.081362 -0.48536327
-8.0126858 15.963809 -0.43780175
-7.639369 16.040621 -0.46869794
-7.2913284 16.119562 -0.47154111
-6.9736066 16.03994 -0.48525688
-6.7632184 15.995522 -0.41938499
-6.393558 16.084635 -0.46175408
-6.0208349 16.128405 -0.39855793
-5.8903265 16.106794 -0.36543709
-5.5288048 16.142696 -0.32675055
-5.2452335 16.117706 -0.39604691
-5.0213223 16.016336 -0.46471855
-4.6793165 16.059858 -0.41389635
-4.285851 16.031662 -0.49992102
-4.0838456 16.052246 -0.4644005
-3.7562587 16.05657 -0.42871919
-3.3609972 16.051373 -0.36724445
-3.1455662 16.014147 -0.40746897
-2.8667614 16.059889 -0.43237558
-2.5640833 16.033678 -0.42853662
-2.2213395 16.038908 -0.39267322
-1.9369926 16.059551 -0.42641819
-1.6917218 16.092607 -0.41928163
-1.3475184 16.047375 -0.42840803
-1.0480977 16.060507 -0.39327514
-0.79244703 16.013494 -0.3826074
-0.44318342 16.039656 -0.39246657
-0.14431222 16.006186 -0.35117713
0.14781041 16.114048 -0.36069599
1.4309032 16.15486 -0.30957741
1.668651 16.15992 -0.39008048
10.173735 16.170647 -0.41984606
10.325633 16.142399 -0.43051857
11.355066 16.010696 -0.40308326
11.909184 16.074429 -0.47783303
12.194224 16.003717 -0.45460343
12.806082 16.03191 -0.46068946
12.996711 15.978188 -0.50800729
13.729912 16.022137 -0.43895561
13.918891 16.057718 -0.45231164
14.107493 16.015572 -0.47294685
14.454796 15.936235 -0.43493316
14.86441 15.994123 -0.49402776
15.443089 16.082829 -0.47040433
15.750894 16.002377 -0.51226008
15.978226 16.039589 -0.53247011
16.383305 16.094019 -0.5048117
16.579062 16.175619 -0.55305576
16.908484 16.11657 -0.52001911
17.227787 16.025549 -0.521047
17.505274 16.181852 -0.50428462
17.852552 16.120201 -0.53734362
18.184446 16.034054 -0.52972198
18.338108 16.115034 -0.47156614
19.058357 16.15247 -0.54802346
19.282383 16.145788 -0.54696405
19.685785 15.944837 -0.54189515
19.810535 16.157108 -0.40775645
20.182981 16.046213 -0.56028038
21.164978 15.946005 -0.54502583
21.501961 16.068346 -0.51734638
21.687122 16.055395 -0.55789554
22.024467 16.012245 -0.53675473
22.378548 16.181168 -0.49483261
22.584332 16.017597 -0.53990257
22.96768 16.109627 -0.52200282
23.652332 16.009577 -0.54196006
23.795761 16.055147 -0.52950084
24.43062 16.103256 -0.43210956
24.830088 16.06172 -0.52859497
25.535625 15.985906 -0.50817269
43.773098 16.141218 -0.59127653
-24.301027 16.345156 -0.48578739
-24.286486 16.34778 -0.49689469
-22.411392 16.255354 -0.49921373
-21.605837 16.279743 -0.31282631
-20.552971 16.323908 -0.54819411
-20.262274 16.351044 -0.56111079
-19.316227 16.333412 -0.49659359
-18.944712 16.219995 -0.54623669
-18.719656 16.325125 -0.5898422
-18.536654 16.396029 -0.45555255
-16.595587 16.44846 -0.48780078
-16.445707 16.460926 -0.54171246
-15.569897 16.267225 -0.31460735
-14.868818 16.26173 -0.38916871
-14.61888 16.432899 -0.52350545
-14.279744 16.337332 -0.57267702
-13.564661 16.281414 -0.58098519
-13.297195 16.392746 -0.57249928
-12.777397 16.358633 -0.50349152
-12.466317 16.359596 -0.45634365
-12.053394 16.449907 -0.59639561
-11.752596 16.378399 -0.45771036
-11.57944 16.246962 -0.51437587
-11.36853 16.32391 -0.32886192
-11.016009 16.306295 -0.48382235
-10.577241 16.279915 -0.44939622
-10.316207 16.425724 -0.44128618
-9.717515 16.352947 -0.42248425
-9.5191574 16.286287 -0.38253376
-9.1799698 16.323938 -0.47958347
-8.7836094 16.36046 -0.45319948
-8.587492 16.306105 -0.48407602
-8.2568846 16.307423 -0.51908618
-7.9352784 16.340336 -0.4131352
-7.211298 16.346714 -0.41813239
-7.052073 16.285833 -0.45718959
-6.4290271 16.456089 -0.42391217
-6.0692902 16.295515 -0.44778803
-5.8136969 16.332924 -0.39946005
-5.5171762 16.354279 -0.34567225
-5.2719874 16.294859 -0.44925073
-4.3523664 16.248255 -0.45208192
-4.0699902 16.373043 -0.46673319
-3.7155945 16.364473 -0.4674001
-3.4384723 16.338196 -0.37921834
-3.1250246 16.362556 -0.44578749
-2.8769526 16.291231 -0.42750829
-2.6145062 16.31101 -0.47860688
-2.2067771 16.356174 -0.40455922
-1.9377992 16.357958 -0.40802133
-1.6850846 16.345348 -0.44477215
-1.3989846 16.401985 -0.47000349
-1.0597647 16.311134 -0.43739679
-0.74532557 16.333933 -0.43019795
-0.46027929 16.325842 -0.43127498
-0.16222118 16.317343 -0.35727143
0.10722566 16.381718 -0.46344039
0.54041576 16.379421 -0.34355393
0.67294139 16.309875 -0.41834024
0.99568504 16.369041 -0.4696995
1.4493737 16.348827 -0.32394791
2.051362 16.322104 -0.34633753
4.4613161 16.366446 -0.39887851
8.980484 16.427147 -0.44396448
9.579237 16.339535 -0.42420927
9.6826382 16.368374 -0.40325278
10.284513 16.335405 -0.43191439
10.543674 16.392042 -0.40181753
10.985121 16.461639 -0.55994445
11.228092 16.277416 -0.44417945
11.876679 16.340242 -0.40133879
12.123208 16.375299 -0.42661884
12.312036 16.421547 -0.4039976
12.846581 16.244997 -0.44463018
13.032759 16.362535 -0.4050853
13.259799 16.379408 -0.47084078
13.670081 16.499287 -0.36535043
14.001902 16.329004 -0.50499815
14.186788 16.290255 -0.50831228
14.986131 16.267958 -0.4898811
15.136822 16.432667 -0.44377112
15.545266 16.319134 -0.50854838
15.696729 16.297058 -0.48566687
16.120644 16.353073 -0.54678011
16.31848 16.444262 -0.54937983
16.65196 16.396528 -0.52414644
16.950836 16.320379 -0.53126866
17.187757 16.332741 -0.5945031
17.601662 16.382631 -0.54238218
17.865061 16.238117 -0.51564115
18.152966 16.378738 -0.55358762
18.465101 16.366417 -0.49851909
19.122259 16.381523 -0.58365649
19.313297 16.395105 -0.53497505
20.007088 16.269472 -0.55316108
20.222 16.345608 -0.57324952
20.595264 16.384987 -0.54905427
21.185148 16.203781 -0.58758295
21.506582 16.306063 -0.53761947
21.720047 16.354183 -0.53309286
22.045486 16.458822 -0.57300687
22.366386 16.380907 -0.5801149
22.634365 16.266006 -0.54302156
22.92786 16.366049 -0.43157607
23.187796 16.219385 -0.56645948
23.665928 16.207817 -0.5614481
23.87991 16.291546 -0.55935645
24.141722 16.4958 -0.58985585
24.419449 16.301985 -0.57520902
24.802605 16.260719 -0.48840344
25.428221 16.432779 -0.58380049
26.264996 16.296562 -0.49382126
42.70002 16.494717 -0.54837143
43.079315 16.320778 -0.54712725
48.069416 16.437197 -0.51931393
-25.050318 16.537716 -0.347994
-24.277613 16.730906 -0.58428276
-20.672964 16.783587 -0.4997218
-20.20899 16.598885 -0.54907393
-19.557781 16.528898 -0.40414563
-19.34836 16.662066 -0.47935393
-18.803572 16.518423 -0.3125397
-18.410822 16.662014 -0.51850963
-17.81868 16.64101 -0.43899554
-17.486067 16.644316 -0.54036516
-17.254095 16.693222 -0.52062023
-16.922409 16.761627 -0.57994443
-16.712383 16.607635 -0.53778946
-16.321678 16.627369 -0.49310952
-15.83265 16.797979 -0.5990755
-15.427877 16.68339 -0.52618825
-15.155838 16.685808 -0.45285818
-14.767888 16.715607 -0.57147932
-14.605205 16.713184 -0.5589174
-13.925036 16.661427 -0.54714727
-13.634876 16.689655 -0.41461006
-13.277626 16.711903 -0.51658058
-13.183669 16.731085 -0.59416455
-12.808225 16.743496 -0.37716687
-12.329341 16.761898 -0.44285077
-12.116652 16.676207 -0.43630925
-11.909546 16.56278 -0.55121583
-11.196709 16.745161 -0.42197466
-11.014986 16.605265 -0.54187936
-10.672802 16.662504 -0.43012819
-10.351089 16.674318 -0.52207142
-10.061963 16.730162 -0.50966239
-9.7383308 16.620464 -0.47432098
-9.4578476 16.755123 -0.54056036
-8.9654503 16.769485 -0.41545093
-8.5245066 16.57173 -0.44146019
-8.3222446 16.603792 -0.47419536
-7.8961096 16.724075 -0.42998743
-7.7178326 16.622984 -0.50645006
-7.2768335 16.755116 -0.31011355
-6.989224 16.672617 -0.49221861
-6.6459036 16.649288 -0.56451833
-6.443203 16.686901 -0.40530935
-6.1806808 16.535868 -0.50462037
-5.770771 16.736753 -0.51051396
-5.5037942 16.6383 -0.41088271
-5.2392192 16.690592 -0.41484103
-4.9165983 16.608526 -0.36405924
-4.6945558 16.680149 -0.37307715
-4.2956657 16.684649 -0.50152355
-3.9777865 16.667446 -0.50434101
-3.7579107 16.680372 -0.42630801
-3.5613012 16.517204 -0.53869861
-3.0886509 16.546429 -0.50169086
-2.7974362 16.599174 -0.44259644
-2.5316281 16.659191 -0.46286601
-2.2718272 16.611074 -0.39243236
-1.9176507 16.655817 -0.42145652
-1.7331756 16.687157 -0.44634438
-1.3811643 16.613039 -0.40511262
-1.1228336 16.604813 -0.44830921
-0.67081046 16.666912 -0.43259946
-0.47398147 16.64418 -0.37734476
-0.19494601 16.654188 -0.4048979
0.12018853 16.611725 -0.48309159
0.66085869 16.730772 -0.4636178
4.0425806 16.577343 -0.32795012
5.9266572 16.672562 -0.52692097
6.6824837 16.535416 -0.38735783
7.4776382 16.681416 -0.35839963
8.0176706 16.528986 -0.39885727
8.2290802 16.781441 -0.4007585
8.6307726 16.567341 -0.45970693
8.8478775 16.656336 -0.40229577
9.5179586 16.752535 -0.40306592
9.7293348 16.632212 -0.41128418
10.385749 16.640074 -0.39931169
10.596855 16.636541 -0.46347076
12.183661 16.713135 -0.43759283
12.778439 16.52424 -0.45259863
13.085401 16.593714 -0.4201577
13.214197 16.76428 -0.32141328
13.702134 16.593922 -0.42304569
13.961972 16.593494 -0.49393401
14.1426 16.668959 -0.4643977
14.913907 16.622923 -0.50330687
15.234672 16.637297 -0.52664566
15.33156 16.787018 -0.41486377
15.835044 16.602701 -0.52133012
16.409452 16.626726 -0.53406632
16.894535 16.683117 -0.55026782
17.353479 16.669888 -0.44269127
17.424555 16.623892 -0.56161398
17.783628 16.634249 -0.52579397
18.153645 16.696594 -0.5541684
18.390112 16.691601 -0.5164606
19.130253 16.678062 -0.57447118
19.775782 16.72884 -0.57402885
20.531837 16.665951 -0.51394832
21.565344 16.609928 -0.53981072
21.700602 16.543617 -0.5403809
22.057606 16.75029 -0.56580579
22.615314 16.7076 -0.55149126
23.29748 16.70262 -0.5484345
23.495625 16.561504 -0.48267728
23.836304 16.600677 -0.48149666
24.161781 16.598703 -0.55504102
24.337507 16.666012 -0.56638539
25.372416 16.649569 -0.56134725
25.909628 16.671738 -0.56477553
42.585213 16.637438 -0.57318443
42.628216 16.662533 -0.57776517
-29.132492 16.983612 -0.46818843
-22.702284 16.851339 -0.49256781
-21.902386 17.066536 -0.54064614
-21.305531 16.813871 -0.55921865
-21.175978 16.989334 -0.54481059
-20.509357 17.076143 -0.45258215
-18.754442 16.972967 -0.58641976
-18.474691 16.828581 -0.56557822
-18.265944 16.834299 -0.575212
-17.324533 16.810282 -0.40048853
-16.93589 16.811626 -0.39767936
-16.770826 16.828505 -0.56842697
-16.104357 16.8582 -0.46860704
-15.673822 16.93376 -0.53205258
-15.453985 16.994244 -0.57628691
-15.139804 16.987703 -0.474949
-14.860151 16.932241 -0.54878008
-14.484804 17.011919 -0.57705647
-14.202076 16.930445 -0.49367753
-13.783752 17.041494 -0.56851035
-13.21347 16.964523 -0.4830215
-13.105915 17.054115 -0.54905343
-12.676906 16.988148 -0.57057512
-12.36138 17.072605 -0.3808628
-12.178926 16.95335 -0.4804762
-11.834408 17.021511 -0.43673107
-11.569797 17.054358 -0.37124094
-11.243281 16.92281 -0.48166579
-10.929844 16.952662 -0.49151573
-10.69515 17.019999 -0.40236422
-10.346545 16.920542 -0.41496551
-9.9912806 16.97839 -0.40416804
-9.782341 16.951233 -0.42045009
-9.501483 16.941254 -0.49488315
-9.1799555 16.99819 -0.40223384
-8.8290548 16.962317 -0.44166937
-8.5767097 17.02578 -0.42578456
-8.2124643 16.991158 -0.3596997
-7.7506142 16.871323 -0.41900966
-7.2921829 16.927942 -0.4007189
-7.1691694 16.920588 -0.4344295
-6.7541394 17.01285 -0.42492855
-6.4590974 16.929491 -0.42208958
-6.1697659 16.935259 -0.47532737
-5.994029 16.89477 -0.48355025
-5.5080109 16.92346 -0.39438629
-5.2244101 16.990923 -0.40921244
-5.0253592 16.939621 -0.3994323
-4.5499372 16.985165 -0.43848413
-4.3540773 16.959736 -0.45066237
-4.0015202 16.901108 -0.40411669
-3.7537744 16.969559 -0.46436745
-3.417805 16.964001 -0.42664447
-3.0779793 17.005878 -0.41483662
-2.8703525 16.967907 -0.41811538
-2.5707004 16.925264 -0.40028411
-2.3157985 16.948601 -0.36001232
-1.9559524 16.947546 -0.40671951
-1.6792393 16.92296 -0.41569903
-1.2771544 16.910727 -0.39239696
-1.025803 17.015863 -0.40813732
-0.77355492 16.911877 -0.43970132
-0.51399654 16.954008 -0.39484417
-0.13772801 16.844946 -0.38411361
0.11304633 16.908308 -0.3769463
0.33828342 16.887062 -0.34062865
0.64273876 16.809238 -0.52583873
3.5794039 16.932096 -0.35524869
4.1341929 17.090786 -0.35678756
4.4185548 17.005648 -0.41668728
7.7861347 16.878391 -0.37962091
7.8901777 16.966267 -0.37768334
8.2380714 16.899094 -0.43452215
8.6314974 16.942982 -0.43085232
8.8504391 16.969124 -0.39394835
9.0683708 17.052677 -0.43149117
9.7599583 16.930588 -0.40820074
10.439149 16.937513 -0.43254161
10.594414 16.990192 -0.40369433
11.82717 16.853691 -0.40702614
12.181043 16.952896 -0.4029133
12.33547 16.976404 -0.38828066
12.857578 17.027683 -0.49890673
13.151705 16.948395 -0.48012567
13.404223 16.96081 -0.41057056
13.98264 16.978058 -0.50257444
14.213604 16.921434 -0.46218729
14.434288 16.998051 -0.5261724
14.8799 16.955948 -0.53647113
15.163338 16.905523 -0.50285739
15.358231 16.949108 -0.51367176
15.686825 16.934671 -0.44820377
16.016775 17.069513 -0.52824885
16.940449 16.897638 -0.57004493
17.293041 16.911705 -0.57449424
17.423849 16.987253 -0.53796262
17.808615 16.93026 -0.50903088
18.136219 16.941957 -0.52942783
18.450922 16.958084 -0.49278545
18.692657 16.962597 -0.5632087
20.264008 16.835787 -0.56003624
20.502335 16.934868 -0.52405161
20.777931 16.854332 -0.58209121
21.441471 17.099627 -0.53413218
21.791565 16.945602 -0.54267472
22.157177 17.001875 -0.55706
22.261917 17.032776 -0.53118455
22.591864 16.985929 -0.56119633
22.994268 16.821596 -0.55456203
23.307186 17.036783 -0.54102886
23.410103 17.040112 -0.58576083
23.73888 17.073093 -0.54054451
24.090891 16.93759 -0.54347265
24.359797 16.89291 -0.44332296
24.804064 16.96393 -0.5506832
25.077589 17.052753 -0.54683065
25.608967 16.960983 -0.53487551
25.894876 17.001799 -0.57479143
26.145252 16.882021 -0.55375397
42.18515 16.875586 -0.44538268
-25.037924 17.265766 -0.4690524
-24.844959 17.33374 -0.46519703
-23.758118 17.292934 -0.5291639
-23.354298 17.251152 -0.56948996
-21.701912 17.391275 -0.57417297
-21.214973 17.102221 -0.44522884
-20.509323 17.190182 -0.46985614
-20.195257 17.311125 -0.55477566
-20.078573 17.353804 -0.58370268
-18.644888 17.388771 -0.50672483
-17.798397 17.311628 -0.54294497
-17.497812 17.227636 -0.48494267
-17.29764 17.224072 -0.45193282
-17.031069 17.302675 -0.4930906
-16.786915 17.146584 -0.39891866
-16.294704 17.314274 -0.46654952
-16.142075 17.285992 -0.4911584
-15.756365 17.33744 -0.49493653
-15.390862 17.271994 -0.49583459
-15.140273 17.14234 -0.58704168
-14.920155 17.273277 -0.47406948
-14.634098 17.361721 -0.57130682
-14.232477 17.188465 -0.39418742
-13.877294 17.28334 -0.45596883
-13.327147 17.302738 -0.54072773
-13.135888 17.273148 -0.50767457
-12.374722 17.203573 -0.45421124
-12.194551 17.241879 -0.52779967
-11.840699 17.332487 -0.55515808
-11.54884 17.242443 -0.49220765
-11.23091 17.328096 -0.48875666
-10.918985 17.248331 -0.48131502
-10.657118 17.298588 -0.48373163
-10.446097 17.234823 -0.40109602
-10.101419 17.292822 -0.54028147
-9.7453175 17.220772 -0.4544985
-9.4397154 17.181459 -0.35635576
-9.211647 17.123421 -0.38419756
-8.8517218 17.259218 -0.45098123
-8.5887432 17.151251 -0.42664289
-8.3400154 17.330109 -0.37162638
-7.9573555 17.392273 -0.47547245
-7.0486631 17.279207 -0.35197008
-6.8562851 17.10751 -0.51982546
-6.4171987 17.191973 -0.36948335
-6.1694818 17.210688 -0.41469726
-5.7618823 17.242773 -0.32192424
-5.5578265 17.227282 -0.46358904
-5.2040014 17.346729 -0.46787605
-4.8561091 17.264755 -0.53208345
-4.0243349 17.197062 -0.43916553
-3.7420685 17.203838 -0.43103769
-3.5319943 17.241701 -0.49458104
-3.1249697 17.288698 -0.47354704
-2.8437545 17.208216 -0.4268758
-2.4825916 17.286173 -0.44663897
-2.2522802 17.234093 -0.38234529
-1.9626456 17.217293 -0.38408807
-1.6888185 17.274311 -0.40286458
-1.3629609 17.221672 -0.42373443
-1.0164793 17.268543 -0.40525514
-0.70203084 17.259104 -0.44590786
-0.47947201 17.22122 -0.47534961
-0.18954945 17.291624 -0.41114175
0.092110276 17.219267 -0.46267205
0.32055885 17.164288 -0.57401276
0.7287277 17.322498 -0.31212524
1.0401391 17.299828 -0.42353657
2.8638418 17.286051 -0.38724002
5.8976836 17.336647 -0.39177069
6.09375 17.318079 -0.36545032
6.3267307 17.312778 -0.34895492
6.840775 17.297747 -0.52475995
7.3557649 17.206387 -0.38628921
7.9929113 17.211985 -0.3832224
8.172246 17.228399 -0.45442218
8.5106602 17.256227 -0.41635615
8.8366232 17.279594 -0.42355707
9.0494261 17.158199 -0.41892439
9.4661417 17.239098 -0.47740698
9.692421 17.244968 -0.40828732
9.9555283 17.194344 -0.55991828
10.327017 17.280525 -0.39578193
10.732736 17.298716 -0.33110368
11.42229 17.204245 -0.47040388
12.290368 17.182907 -0.51786476
12.40451 17.227478 -0.45068818
13.162758 17.178486 -0.44004488
13.302705 17.27474 -0.43510565
13.700071 17.358097 -0.47943184
13.986992 17.263201 -0.47144741
14.107724 17.360546 -0.44453275
14.659839 17.132744 -0.51858991
14.944923 17.268805 -0.5467155
15.414602 17.251379 -0.54342037
15.816551 17.344635 -0.49428576
16.118135 17.206762 -0.52942711
16.213213 17.230009 -0.55392808
16.713062 17.259279 -0.57646012
17.257071 17.264856 -0.53127861
17.515184 17.281843 -0.53662086
17.941013 17.273266 -0.55511963
18.041889 17.254549 -0.53212845
18.532196 17.201609 -0.56424856
18.67181 17.232807 -0.55631071
19.844587 17.39205 -0.58474714
20.160036 17.254084 -0.51273173
20.554831 17.331091 -0.53945011
21.570921 17.332579 -0.57846528
22.371187 17.267817 -0.54822868
22.673531 17.19199 -0.55433369
23.004387 17.345881 -0.59027392
23.545605 17.179768 -0.52507246
23.894571 17.212729 -0.57974398
24.65836 17.212742 -0.59483576
25.306055 17.17985 -0.59293139
25.555426 17.335665 -0.59956825
26.277969 17.194696 -0.51755768
26.898132 17.135185 -0.407792
27.066818 17.295759 -0.32768452
30.127232 17.187038 -0.44975802
41.514545 17.209581 -0.52263027
42.603352 17.109516 -0.48394829
-40.960155 17.489466 -0.45946619
-29.804199 17.443556 -0.56428957
-22.872936 17.446011 -0.56849319
-22.705048 17.474142 -0.53950274
-21.954462 17.64105 -0.51575142
-20.803104 17.432673 -0.47937256
-20.14192 17.426468 -0.31882241
-18.907125 17.561018 -0.37729061
-18.802368 17.527342 -0.52305865
-18.359692 17.461391 -0.45633855
-18.2019 17.592846 -0.53567559
-17.58165 17.59605 -0.50438327
-17.277733 17.518997 -0.51703596
-16.970116 17.629358 -0.45986488
-16.58666 17.529381 -0.38667098
-16.412617 17.421925 -0.53146017
-15.699461 17.630817 -0.57235956
-15.425705 17.53611 -0.57301825
-15.111684 17.557184 -0.44727358
-14.887986 17.527079 -0.47633913
-14.524183 17.698605 -0.45783713
-14.322688 17.517014 -0.48764363
-13.902384 17.534948 -0.49135056
-13.579824 17.492157 -0.38836852
-13.3337 17.516624 -0.50599933
-13.06927 17.559782 -0.50534213
-12.732668 17.547888 -0.46030897
-12.465373 17.558943 -0.49924564
-12.175989 17.64266 -0.50111204
-11.759549 17.51638 -0.50305122
-11.582702 17.58 -0.51174456
-10.967111 17.472528 -0.43908972
-10.679905 17.564116 -0.49304748
-10.004672 17.456966 -0.41073999
-9.8399343 17.578987 -0.32783812
-9.4143572 17.471415 -0.44901457
-9.0802631 17.569088 -0.53434533
-8.8903351 17.570511 -0.47781843
-8.6985989 17.430004 -0.56280243
-8.2974377 17.656841 -0.33770674
-8.0115185 17.650921 -0.48834392
-7.5879555 17.52495 -0.33865562
-7.3372865 17.5539 -0.38287339
-6.73421 17.482773 -0.42189378
-6.4018774 17.475624 -0.42387021
-6.1614089 17.582975 -0.44001982
-5.1777377 17.441906 -0.46240366
-4.9417601 17.526863 -0.49250132
-4.6196022 17.532558 -0.51240474
-4.4825044 17.495224 -0.41294026
-3.9632285 17.544445 -0.38214323
-3.6864862 17.616619 -0.47262627
-3.4053514 17.602978 -0.39857948
-3.1992319 17.571079 -0.38959983
-2.8442061 17.552517 -0.3660112
-2.5074482 17.519703 -0.42353722
-2.2954507 17.546337 -0.38305432
-1.9092164 17.556362 -0.37338182
-1.7009217 17.505318 -0.36609262
-1.2879117 17.582878 -0.39391005
-1.1006771 17.517435 -0.35035029
-0.70156616 17.583303 -0.36123601
-0.54969209 17.503355 -0.44659719
-0.085139535 17.547293 -0.44809934
0.089472182 17.550928 -0.39270881
0.79922622 17.452183 -0.38489178
0.93051577 17.440926 -0.38063091
2.0640786 17.621763 -0.33600324
3.3785191 17.451361 -0.34767503
4.1595783 17.468092 -0.41984564
4.4902964 17.680841 -0.44605708
4.9392614 17.622478 -0.42879692
5.25635 17.584494 -0.36572239
5.4475279 17.64583 -0.38880789
5.9581313 17.439394 -0.58013242
6.1155505 17.592609 -0.37454721
6.3536673 17.557117 -0.36461344
7.3415895 17.534054 -0.35905048
7.9778786 17.50971 -0.46213019
8.2583799 17.480745 -0.4390142
8.8750391 17.555925 -0.4092142
9.0752163 17.599529 -0.39310691
9.371151 17.684233 -0.41464153
9.7081232 17.529078 -0.43243977
10.367302 17.594769 -0.4110471
10.698155 17.526295 -0.44155467
10.941571 17.667818 -0.38591957
11.545278 17.626671 -0.52290648
12.240651 17.552773 -0.52544314
12.507608 17.530024 -0.472491
13.145784 17.576759 -0.52737337
13.290558 17.549192 -0.53096312
13.569322 17.588299 -0.52470112
13.952612 17.556538 -0.49960485
14.52847 17.533131 -0.5360359
15.202805 17.484318 -0.55766177
15.324819 17.403343 -0.52724534
15.867612 17.629143 -0.5437088
16.220779 17.429285 -0.56748229
17.336824 17.523788 -0.53826046
17.663439 17.440086 -0.59930521
17.846127 17.618961 -0.50012958
18.077488 17.433704 -0.58200353
18.451012 17.503397 -0.53615594
18.701303 17.648329 -0.56478852
19.029713 17.637684 -0.55961221
19.532434 17.420347 -0.47233349
19.896494 17.508268 -0.5491966
20.540432 17.522511 -0.55167425
21.729761 17.439714 -0.57134026
22.377447 17.550945 -0.54558963
22.58375 17.517176 -0.53670323
23.076509 17.523693 -0.57671106
23.124969 17.538883 -0.56033736
23.70187 17.46356 -0.58656955
24.042721 17.568466 -0.4438324
25.146122 17.563423 -0.59794497
25.986423 17.573298 -0.54064304
26.227354 17.610312 -0.56137151
-26.226473 17.850574 -0.4371092
-24.355804 17.741772 -0.47709507
-22.742699 17.869677 -0.58218265
-19.278584 17.809242 -0.40891474
-18.978895 17.86536 -0.53094125
-18.649837 17.826458 -0.50676972
-17.757751 17.819998 -0.52488083
-17.633221 17.881727 -0.5198434
-17.198835 17.906225 -0.49727139
-16.816435 17.734802 -0.58465791
-16.390406 17.916922 -0.54821759
-16.126444 17.973366 -0.52963269
-15.155468 17.852394 -0.49957076
-14.875615 17.853346 -0.57972956
-14.272384 17.804255 -0.57387453
-14.031979 17.872046 -0.50090104
-13.750988 17.972265 -0.43073785
-12.672885 17.789253 -0.56675249
-12.350345 17.894373 -0.52209008
-12.164108 17.814699 -0.54968977
-11.487703 17.798737 -0.50345349
-11.237899 17.889709 -0.52113312
-10.923646 17.909029 -0.4357194
-10.627435 17.819002 -0.4267863
-10.394139 17.778835 -0.42901349
-10.05826 17.816183 -0.51342911
-9.8139 17.860943 -0.38385034
-9.4689445 17.912224 -0.41232428
-9.203537 17.853214 -0.47476441
-8.8511372 17.774832 -0.46533787
-8.5335989 17.930626 -0.34272668
-8.1994667 17.84708 -0.45734331
-8.0259495 17.894133 -0.42985466
-6.9618025 17.88308 -0.40892595
-6.811141 17.841866 -0.40301734
-6.3785419 17.899744 -0.48712888
-6.2420511 17.909674 -0.34055758
-5.5393505 17.865238 -0.40309009
-5.2455826 17.86656 -0.5084123
-4.8778634 17.847475 -0.49230951
-4.6443071 17.878971 -0.51379788
-4.3339901 17.792622 -0.4678812
-4.0886774 17.845263 -0.4682923
-3.6765726 17.831944 -0.4079648
-3.4252996 17.83535 -0.47352782
-3.1453569 17.865845 -0.4422856
-2.8638587 17.827496 -0.44054976
-2.5464079 17.877951 -0.42821562
-2.2063208 17.906321 -0.37671745
-1.9270576 17.866976 -0.39236593
-1.6426958 17.860415 -0.39035398
-1.3720888 17.82151 -0.39803874
-1.086434 17.813562 -0.47908539
-0.77963251 17.836226 -0.44212982
-0.44981599 17.76125 -0.33844492
-0.23917653 17.810133 -0.35036722
0.16435927 17.849993 -0.43125111
0.54727364 17.846451 -0.31297126
0.78898257 17.858744 -0.35829556
1.389442 17.858887 -0.53989148
3.4848344 17.982391 -0.33907825
4.0649843 17.872431 -0.35656294
4.4388695 17.832979 -0.43335128
4.5922923 17.896046 -0.36983326
4.8838711 17.830498 -0.34685221
5.1633053 17.826071 -0.43174493
5.5308223 17.91991 -0.3453314
6.182653 17.797405 -0.42106047
6.4649649 17.88345 -0.39680687
6.9520841 17.851068 -0.44621864
7.4086819 17.76939 -0.43986598
7.5907388 17.892832 -0.35563067
8.2623987 17.794561 -0.41597617
8.4634819 17.953304 -0.3622458
8.7723494 17.76231 -0.46735626
9.0918436 17.823076 -0.38238573
9.8713951 17.936295 -0.34998202
10.33803 17.90567 -0.39316267
10.611596 17.830442 -0.41894293
10.978738 17.856565 -0.39001164
11.687127 17.761614 -0.47117797
11.781728 17.962267 -0.44158146
12.497053 17.822872 -0.49869046
12.764831 17.83956 -0.42796135
12.988628 17.843357 -0.50841165
13.359282 17.934849 -0.50510073
13.594855 17.839954 -0.51711333
14.06444 17.726561 -0.54234719
14.282339 17.895468 -0.55267692
14.458971 17.938606 -0.54898036
15.068563 17.911245 -0.58824259
15.559728 17.82082 -0.5450235
15.652849 17.780369 -0.55231798
16.022114 17.90774 -0.51619327
17.088673 17.902452 -0.53368783
17.272221 17.833479 -0.5484547
17.552673 17.837496 -0.53787005
17.907305 17.89185 -0.57594681
18.507715 17.837828 -0.5414688
18.752813 17.889915 -0.55627626
20.029116 17.742785 -0.49117672
20.152798 17.940048 -0.56201744
20.514193 17.864065 -0.55547804
22.069937 17.755964 -0.52855855
22.35301 17.878632 -0.58601743
22.779663 17.985435 -0.54857844
22.9118 17.849955 -0.55596906
23.164625 17.785177 -0.41528538
23.565947 17.834255 -0.53858835
24.186951 17.878418 -0.55352509
24.691376 17.81127 -0.55795383
24.970818 17.742619 -0.54698443
25.49065 17.78451 -0.52226222
25.598871 17.845116 -0.59160835
26.218796 17.871626 -0.53359902
26.836992 17.850258 -0.34957299
27.142557 17.710991 -0.31303635
-26.503866 18.296822 -0.57322997
-24.338882 18.240646 -0.48860693
-24.207623 18.130547 -0.55620456
-21.617805 18.253651 -0.58735335
-21.532408 18.144508 -0.58103061
-21.121634 18.191496 -0.44808483
-20.003307 18.180838 -0.49904552
-19.533848 18.197632 -0.51521647
-19.480637 18.266884 -0.50757712
-18.762651 18.124746 -0.53892416
-18.025507 18.112833 -0.42479941
-17.937529 18.000998 -0.58909512
-17.463726 18.174774 -0.44878638
-16.293011 18.266323 -0.48273459
-16.036207 18.129271 -0.49833182
-15.801379 18.194496 -0.46010429
-15.50895 18.164995 -0.58728033
-15.197606 18.075739 -0.41128087
-14.866606 18.171795 -0.55004513
-14.570686 18.114454 -0.45453128
-14.265624 18.178522 -0.45908731
-13.92144 18.191031 -0.49459657
-13.669552 18.169317 -0.4779743
-13.325818 18.157467 -0.33138677
-13.0845 18.202936 -0.362712
-12.798014 18.219866 -0.45469683
-12.587162 18.243376 -0.47965634
-12.23065 18.141918 -0.4658252
-11.603325 18.247889 -0.42188177
-10.96272 18.120745 -0.45411742
-10.619683 18.219667 -0.39300844
-10.332337 18.217886 -0.48510662
-9.9647484 18.155931 -0.52067178
-9.8155241 18.062925 -0.45526922
-9.3704681 18.165062 -0.46018392
-9.1597862 18.125507 -0.43308902
-8.9655857 18.215834 -0.35893393
-8.5486288 18.155397 -0.45543084
-8.1686487 18.107079 -0.42887387
-7.9743071 18.151537 -0.39874762
-7.6940212 18.210312 -0.37037808
-7.2733173 18.03249 -0.31309617
-7.0395184 18.144699 -0.40907943
-6.8063674 18.057501 -0.38999233
-6.4465623 18.182632 -0.37702835
-5.8476548 18.246393 -0.36169353
-5.5947957 18.072388 -0.34361237
-5.1973734 18.237255 -0.47937909
-4.9238458 18.105747 -0.56534028
-4.6464906 18.154249 -0.49070978
-4.3938041 18.144127 -0.45859152
-4.0767465 18.091471 -0.51313806
-3.6611493 18.102337 -0.3991265
-3.414381 18.192419 -0.45770356
-3.1896694 18.156786 -0.4265402
-2.8001542 18.147493 -0.42543966
-2.5325005 18.15172 -0.44603199
-2.2619057 18.107439 -0.40474677
-1.9376478 18.207439 -0.36473212
-1.6168736 18.150196 -0.44992539
-1.3775647 18.178513 -0.41909674
-1.0630794 18.216394 -0.46981445
-0.81246215 18.130075 -0.46514338
-0.31090146 18.273672 -0.36298478
-0.082860552 18.146595 -0.5281812
0.030975958 18.242512 -0.37824136
0.37611356 18.147041 -0.41170216
1.0154971 18.088152 -0.41100439
1.2454598 18.05101 -0.34675953
2.5533082 18.232361 -0.3225157
2.9163961 18.199249 -0.38937008
3.5586109 18.202059 -0.36419845
3.8614907 18.182928 -0.3682203
4.4639244 18.124432 -0.38261408
4.6917744 18.098352 -0.41355732
4.9555616 18.041599 -0.40398428
5.2724929 18.200523 -0.32542878
5.5092278 18.269365 -0.42102629
5.7668519 18.103237 -0.36684927
6.1500816 18.207008 -0.38644522
6.4362998 18.16744 -0.37933016
7.0086055 18.036831 -0.4492805
7.3088398 18.166494 -0.37328905
7.6877136 18.1285 -0.3887392
8.4543333 18.118639 -0.39965609
8.8458796 18.145662 -0.36061239
9.0757122 18.090889 -0.42151275
9.3650122 18.141287 -0.37634897
10.002671 18.127926 -0.37880298
10.74364 18.142365 -0.37097144
10.952574 18.147753 -0.40225777
11.68364 18.293299 -0.48877481
11.84767 18.187834 -0.49902868
12.585093 18.050827 -0.5005697
12.718174 18.116346 -0.49739754
13.026856 18.170921 -0.44378167
13.441726 18.202362 -0.54687148
13.678044 18.089472 -0.53179866
13.81949 18.181232 -0.45411751
14.243326 18.217144 -0.52127206
14.543961 18.147356 -0.55013275
14.869776 18.23473 -0.56470472
15.250989 18.130039 -0.54332525
15.546056 18.154634 -0.51427871
16.045774 18.169107 -0.5533973
16.370192 18.13378 -0.57491106
16.91688 18.223206 -0.58743227
17.306948 18.202368 -0.55237073
17.551222 18.146345 -0.56754297
17.98037 18.176102 -0.48676425
18.079107 18.125582 -0.59303242
18.429159 18.185234 -0.58951241
18.747084 18.178085 -0.53912926
19.209986 18.114216 -0.55669957
20.529659 18.044518 -0.56594598
20.832329 18.178078 -0.58412111
21.885994 18.166641 -0.52210462
22.101425 18.140469 -0.53563589
22.336407 18.139973 -0.51787966
22.750919 18.185291 -0.57419854
22.814615 18.047335 -0.55143923
23.286924 18.215557 -0.55897069
23.447908 18.101221 -0.52272755
24.399609 18.158051 -0.43846041
25.330872 18.278297 -0.51959628
26.053574 18.139229 -0.47201112
26.23604 18.168945 -0.54128581
26.710745 18.251659 -0.39635333
-26.52976 18.36154 -0.5341717
-26.398802 18.419628 -0.56009352
-23.554327 18.527866 -0.51063037
-22.720432 18.588272 -0.57301569
-21.165237 18.310703 -0.59284985
-20.4564 18.523254 -0.39330348
-19.85367 18.369259 -0.59175885
-19.660917 18.444757 -0.48505175
-19.351915 18.446127 -0.52898687
-18.788277 18.417068 -0.55396223
-18.516296 18.550159 -0.4786467
-17.439671 18.458702 -0.5682621
-17.209349 18.547401 -0.51864117
-16.663506 18.568844 -0.59630179
-16.313404 18.475142 -0.5839628
-15.614283 18.558622 -0.3665185
-15.46516 18.41522 -0.51046032
-15.123889 18.451403 -0.47722346
-14.831645 18.522388 -0.46427816
-14.571324 18.43368 -0.47277305
-14.254905 18.410309 -0.56506044
-13.964515 18.469536 -0.49195829
-13.639799 18.442566 -0.52493447
-13.017552 18.43276 -0.55605346
-12.76006 18.493856 -0.5041464
-12.348506 18.383333 -0.57469773
-12.135475 18.385555 -0.43282786
-11.802193 18.443565 -0.58038485
-11.678742 18.518314 -0.5421744
-11.220461 18.467648 -0.54569709
-10.979924 18.428326 -0.54107636
-10.505867 18.421425 -0.55395859
-10.328073 18.415102 -0.55948925
-10.063373 18.421827 -0.51296741
-9.7633972 18.415651 -0.39094236
-9.3482046 18.419874 -0.49365625
-9.1459856 18.355675 -0.53224123
-8.7859879 18.474283 -0.4673332
-8.5697403 18.454899 -0.51714838
-7.9795127 18.396965 -0.3600316
-7.6629601 18.483175 -0.37815532
-7.3381753 18.459959 -0.44161049
-7.0868473 18.352234 -0.42135012
-6.7809372 18.442535 -0.39820895
-6.3295922 18.588892 -0.34288746
-6.1605268 18.474836 -0.36138082
-5.8150139 18.452976 -0.39880449
-5.1601815 18.398882 -0.47096083
-4.9496436 18.519791 -0.39447963
-4.570641 18.478622 -0.45271865
-4.0914354 18.468733 -0.40561041
-3.729192 18.465128 -0.46992975
-3.4156954 18.502729 -0.38999385
-3.1571119 18.433586 -0.44034779
-2.8404031 18.42721 -0.37242243
-2.5348995 18.429085 -0.41369119
-2.242882 18.480669 -0.37180996
-1.9776447 18.422688 -0.45889807
-1.666554 18.441147 -0.38191745
-1.3796018 18.400242 -0.44674128
-0.99737018 18.401869 -0.45766705
-0.80836916 18.345875 -0.47350925
-0.52550691 18.497522 -0.41294447
0.38542342 18.432388 -0.54712033
0.85666347 18.445318 -0.38809568
1.1689938 18.546265 -0.38501552
1.3706876 18.550053 -0.39932787
1.7713728 18.436329 -0.33998775
1.9674302 18.490896 -0.36693901
2.1723413 18.394836 -0.3641825
2.449198 18.480001 -0.5320276
2.7938681 18.469931 -0.35332575
3.0915225 18.364706 -0.33585849
3.5396805 18.47123 -0.51122636
3.7340767 18.440407 -0.3919577
3.9817569 18.466389 -0.36914265
4.250701 18.421822 -0.33626246
4.5930877 18.433235 -0.36468288
4.9280453 18.455379 -0.37078109
5.5860124 18.474409 -0.32434836
6.2084851 18.406168 -0.37833306
6.4240737 18.484301 -0.38970649
6.6124868 18.400436 -0.42913365
7.0656528 18.333525 -0.49478367
7.3858733 18.409729 -0.36742294
7.6644506 18.484886 -0.38517228
8.4857683 18.390051 -0.36161229
9.1198578 18.421801 -0.38718185
9.4521456 18.446556 -0.40048066
9.7570057 18.574352 -0.42989382
10.091881 18.405121 -0.39417264
10.334229 18.504154 -0.38541108
10.73818 18.457464 -0.42870453
10.964143 18.536413 -0.38759556
11.165725 18.423655 -0.41168159
12.406062 18.383333 -0.53048396
12.823931 18.441034 -0.50053704
12.978371 18.408297 -0.46577272
13.394897 18.394283 -0.5299297
13.594294 18.437908 -0.53131586
14.281601 18.416946 -0.52622432
14.566833 18.469656 -0.53006095
14.892248 18.384569 -0.53092062
15.092916 18.588814 -0.57209063
15.525735 18.445961 -0.54395151
15.631225 18.476189 -0.57284009
16.328388 18.477953 -0.58620626
17.269447 18.379942 -0.57106084
17.798435 18.509588 -0.55187285
18.274652 18.450048 -0.58414906
18.768444 18.414249 -0.53815669
19.399157 18.350506 -0.5677616
19.779455 18.378712 -0.53942025
20.332659 18.507317 -0.54583597
20.731209 18.440306 -0.51372492
21.198956 18.526155 -0.57506943
22.321339 18.445957 -0.53398007
22.590685 18.500605 -0.56298131
22.917305 18.421356 -0.5720796
23.279572 18.416254 -0.54537928
23.421707 18.422359 -0.56252682
24.250847 18.399052 -0.56905663
24.810492 18.407988 -0.52103001
25.722954 18.570848 -0.55152565
26.2507 18.428806 -0.51025903
26.714193 18.310411 -0.36422807
27.03363 18.309233 -0.31546682
47.422661 18.561661 -0.55513704
48.207928 18.592014 -0.44802445
48.337994 18.567574 -0.56339955
-22.276693 18.856485 -0.39472431
-21.963039 18.703842 -0.59102631
-21.438322 18.89259 -0.58747822
-18.930359 18.735661 -0.55569249
-18.613859 18.805941 -0.52745819
-17.777693 18.654873 -0.3757723
-17.420849 18.606518 -0.47474617
-17.291365 18.730103 -0.51962781
-17.019476 18.732365 -0.50857174
-16.73748 18.846085 -0.5252896
-16.285393 18.78455 -0.46887621
-15.939921 18.741392 -0.46669331
-15.743353 18.883572 -0.56681496
-15.425808 18.690081 -0.47834089
-15.14894 18.730808 -0.53491926
-14.801024 18.750805 -0.5055846
-14.5171 18.693542 -0.53904331
-14.222794 18.792181 -0.54809332
-13.859535 18.792484 -0.48747075
-13.669939 18.837612 -0.51355034
-13.433374 18.751125 -0.46712917
-12.975547 18.734537 -0.5414235
-12.406507 18.828957 -0.50921208
-12.163483 18.869434 -0.58418953
-11.835984 18.741508 -0.56361586
-11.507559 18.805365 -0.45574236
-11.290484 18.728439 -0.53364861
-11.027546 18.796406 -0.51227063
-10.615925 18.683651 -0.45859563
-10.283882 18.706997 -0.50225717
-10.064967 18.765921 -0.47437033
-9.7043829 18.744925 -0.5177204
-9.1355658 18.809183 -0.4568412
-8.8879595 18.829849 -0.50358588
-8.3066368 18.713938 -0.39788431
-7.5473199 18.749363 -0.48971742
-7.401855 18.726809 -0.39756909
-6.9559016 18.699423 -0.42603835
-6.8460617 18.731749 -0.42197976
-6.4484444 18.738993 -0.38506415
-6.1126547 18.794966 -0.30040315
-5.7810001 18.882784 -0.35263008
-5.6631088 18.701998 -0.3360233
-5.2099051 18.814445 -0.40401089
-5.036799 18.70347 -0.41806206
-4.528852 18.835909 -0.52462852
-4.3049393 18.789299 -0.4076663
-4.0676074 18.734392 -0.51491725
-3.7503998 18.761036 -0.41498548
-3.4321437 18.751776 -0.40712464
-3.1288953 18.737072 -0.48245558
-2.8580506 18.706161 -0.38703358
-2.540169 18.711519 -0.38815057
-2.2587504 18.720165 -0.43945101
-1.9968872 18.79147 -0.43033755
-1.6127343 18.780476 -0.4559648
-1.3407861 18.734385 -0.44748372
-1.0250903 18.657333 -0.44527456
-0.76339573 18.825945 -0.48189545
-0.4820458 18.794632 -0.4700959
0.19477126 18.782885 -0.38938203
0.45682827 18.754484 -0.4136835
0.77846009 18.712965 -0.34436446
1.0026511 18.760216 -0.36371881
1.401938 18.705227 -0.35574678
1.5857681 18.74682 -0.37361926
1.9757783 18.761753 -0.38846222
2.2372787 18.748384 -0.3620533
2.5526738 18.839193 -0.40568063
2.8848114 18.761103 -0.41286385
3.0964954 18.775959 -0.49019384
3.5331161 18.846033 -0.31083617
3.797791 18.708422 -0.48799285
4.1501079 18.798813 -0.38108408
4.3127723 18.794149 -0.36635628
4.6340599 18.792358 -0.35720822
5.023612 18.767824 -0.33345276
5.123467 18.876472 -0.39308769
5.662776 18.733231 -0.40317869
5.829535 18.867657 -0.50568664
6.437324 18.755749 -0.40164208
6.6980815 18.778126 -0.44037688
7.3168588 18.759699 -0.4897171
7.7054458 18.800245 -0.40316394
8.3492928 18.770504 -0.32321167
8.5432835 18.822227 -0.31432673
8.7628231 18.898098 -0.32953304
9.1773481 18.715786 -0.38258722
9.4548588 18.709347 -0.43540677
10.112329 18.702221 -0.36409211
10.301019 18.83263 -0.44623646
10.576699 18.758316 -0.37810698
10.963269 18.667776 -0.44695061
11.201732 18.725725 -0.42381826
12.5366 18.660542 -0.48748928
12.754776 18.738367 -0.46753249
13.007091 18.745497 -0.47378093
13.419508 18.876553 -0.53477168
13.664581 18.674843 -0.51946217
13.89834 18.859241 -0.52743602
14.598639 18.711594 -0.53734684
14.854322 18.727077 -0.55752206
15.110767 18.773554 -0.58503485
15.485981 18.753059 -0.56631947
15.716072 18.818184 -0.52856553
16.131443 18.843792 -0.58781868
16.433731 18.618563 -0.5163514
16.594276 18.799572 -0.59108871
17.074839 18.650164 -0.57071739
17.677498 18.742565 -0.50914091
17.868433 18.684626 -0.55716336
18.134548 18.651936 -0.56206131
18.390728 18.806881 -0.58184779
18.699186 18.781221 -0.59049267
19.205803 18.614054 -0.58977997
20.343903 18.679949 -0.58465749
20.477875 18.711372 -0.45506692
21.170374 18.807852 -0.58256322
21.392956 18.792414 -0.57647675
22.169846 18.739809 -0.46084622
22.412554 18.716751 -0.55000508
22.691877 18.642529 -0.56187409
22.981522 18.785313 -0.59729457
23.356359 18.833061 -0.58659548
23.472631 18.800638 -0.48523942
23.859482 18.836313 -0.5783205
24.182358 18.614485 -0.58954561
24.75823 18.892351 -0.56016606
25.939013 18.780575 -0.51876175
26.239502 18.787827 -0.49973869
26.507059 18.684864 -0.47125986
48.2001 18.629192 -0.50257409
48.31638 18.608238 -0.55393779
-31.243155 19.145601 -0.58747244
-26.519371 19.168461 -0.50547975
-25.673813 19.031412 -0.3630406
-24.113461 19.194502 -0.48161682
-22.54528 18.980406 -0.52113253
-21.43049 18.912886 -0.55712563
-20.829559 19.174753 -0.39709073
-20.471882 19.074158 -0.53324139
-20.284779 18.966295 -0.59974277
-19.922756 19.174532 -0.58654958
-19.665016 19.144295 -0.5849694
-19.26004 19.0457 -0.52833921
-19.055208 19.062189 -0.49243125
-18.888084 19.119081 -0.45511648
-18.497721 19.141499 -0.48042953
-17.61133 19.162708 -0.55851948
-17.177444 19.067951 -0.52353901
-16.870874 19.019852 -0.47007683
-16.516567 19.078716 -0.53101039
-16.299597 19.152309 -0.5557031
-16.051035 19.064754 -0.54923385
-15.737956 19.007135 -0.51973635
-15.413928 19.104231 -0.5472644
-15.121104 19.102674 -0.56820709
-14.575857 19.030634 -0.53777587
-14.141787 18.958755 -0.53417552
-14.017036 19.005405 -0.50781596
-13.610632 19.015087 -0.50948614
-13.349403 19.104963 -0.45843187
-13.102195 19.099903 -0.50172478
-12.710129 19.093634 -0.54932743
-12.397154 18.992365 -0.41062221
-12.175732 19.138716 -0.50946081
-11.791509 19.08604 -0.54713875
-11.528597 18.98855 -0.47846836
-11.000572 19.125563 -0.50975198
-10.709618 19.08007 -0.35800916
-10.352722 19.042761 -0.53030133
-9.9692326 19.079706 -0.48370045
-9.8541985 19.109764 -0.50559163
-9.5253534 19.107237 -0.42790091
-9.0765524 19.077759 -0.45353875
-8.8858309 19.088604 -0.50220025
-8.6182566 19.101986 -0.41060528
-8.2429266 19.013815 -0.41872168
-7.4006915 18.99164 -0.45355287
-6.9754272 19.024797 -0.37094006
-6.8571038 19.118538 -0.45015097
-6.4819818 19.074789 -0.40702534
-6.1399627 19.097763 -0.42317858
-5.8065038 19.011517 -0.39555821
-5.5378923 19.185612 -0.50467789
-5.1036019 19.164019 -0.44594452
-4.575304 19.05187 -0.56614059
-4.3216395 19.035715 -0.42604911
-4.11236 19.03039 -0.46046641
-3.7826378 18.996954 -0.448991
-3.4341424 19.044075 -0.41770405
-3.1461852 19.045151 -0.38536569
-2.9033659 19.081005 -0.45444113
-2.5540257 19.054024 -0.41303438
-2.2915103 19.052679 -0.3541517
-2.0003619 19.065369 -0.43134195
-1.7114074 19.085514 -0.42162323
-1.3059763 19.075863 -0.41187257
-1.026333 19.067209 -0.4990308
-0.82502568 19.051023 -0.45195824
-0.45032224 19.019949 -0.3987985
-0.093203768 19.079971 -0.38341284
0.20402734 19.066902 -0.36290488
0.39040035 19.024273 -0.36449519
0.81151688 18.950771 -0.42841282
1.0569199 19.04534 -0.39414686
1.3628364 19.031128 -0.37052131
1.6874163 18.94553 -0.36272913
1.9966235 19.062603 -0.33095336
2.2446365 19.071199 -0.39017564
2.520261 19.035156 -0.36897141
2.8541696 19.172003 -0.4436563
3.15885 18.927742 -0.37107289
3.7899013 19.083839 -0.38149208
4.1456423 19.098989 -0.38309607
4.3819933 19.00297 -0.35514659
4.6591287 19.044029 -0.46631816
5.1778541 19.099152 -0.35997885
5.4599853 18.978464 -0.41633373
5.8080463 19.017355 -0.43160582
6.5299625 19.037767 -0.37374493
6.6782842 18.998852 -0.40209553
6.968823 19.075966 -0.37060699
7.9484439 19.135092 -0.43297005
8.3855543 19.172943 -0.52681929
8.5113859 19.089745 -0.40547284
8.875309 19.055624 -0.36598149
9.2112484 18.989803 -0.37955961
9.4457779 19.044077 -0.39296171
10.126966 19.021019 -0.40038967
10.264977 18.964226 -0.4430674
10.693624 18.943455 -0.37008017
10.994204 19.039942 -0.43500391
11.177302 19.007284 -0.37937951
