# .PCD v0.7 - Point Cloud Data file format
VERSION 0.7
FIELDS x y z
SIZE 4 4 4
TYPE F F F
COUNT 1 1 1
WIDTH 1473
HEIGHT 1
VIEWPOINT 0 0 0 1 0 0 0
POINTS 1473
DATA ascii
-5.2158208 -172.6761 -1.1356965
-4.8505621 -172.59578 -1.3146431
-4.4213061 -172.61884 -1.2056675
-3.9216108 -172.63141 -1.1765689
-3.1325722 -172.56543 -1.223103
-2.9625967 -172.55707 -1.18121
-1.8163996 -172.72345 -1.2435844
-1.4726167 -172.68849 -1.1336613
24.38559 -172.61307 -1.1893871
-17.859865 -172.22618 -1.1735485
-14.147642 -172.17827 -1.0762823
-13.71899 -172.22627 -1.205932
-12.596036 -172.01657 -1.0864254
-12.424857 -172.04811 -1.1205802
-11.898764 -172.38907 -1.0654347
-11.260548 -172.26764 -1.1104809
-10.90046 -172.03203 -1.2182726
-9.8030214 -172.30717 -1.0809848
-9.1989107 -172.18315 -1.1364822
-8.5788937 -172.27342 -1.1236874
-8.4321156 -172.36307 -1.0341201
-7.6013045 -172.1187 -1.1806343
-7.3103662 -172.22591 -1.2107741
-6.9936461 -172.47295 -1.2061692
-6.2101502 -172.32324 -1.2308235
-5.7133307 -172.15327 -1.1479671
-5.2552547 -172.31581 -1.1966674
-3.1301641 -172.34584 -1.1760597
-2.8834178 -172.26457 -1.1186813
-2.0201111 -172.11559 -1.0718318
-1.915964 -172.28267 -1.1303552
-1.336587 -172.05569 -1.0541518
1.7414356 -172.10896 -1.4408709
-15.11731 -171.8997 -1.3269511
-14.417848 -171.90054 -1.0330147
-13.099813 -171.76297 -1.0133482
-12.74155 -171.86607 -1.0871323
-12.116846 -171.87357 -1.1182487
-11.790952 -171.79683 -1.0736625
-11.284474 -171.71437 -1.0725526
-10.836135 -171.77716 -1.1659019
-10.163145 -171.81259 -1.1871355
-9.7273531 -171.93924 -1.1971428
-9.0937128 -171.6646 -1.2516874
-8.7646313 -171.74062 -1.1149331
-8.1860762 -171.59097 -1.1318264
-7.805747 -171.80649 -1.1307188
-7.4647999 -171.83905 -1.1511438
-6.1354465 -171.84447 -1.1565703
-5.8472695 -171.75333 -1.1420569
-5.2697759 -171.82898 -1.1132233
-4.5111718 -171.68399 -1.0873344
-3.3746827 -171.70349 -1.3484997
-2.4317307 -171.55801 -1.2855756
-1.1921628 -171.74973 -1.1404665
-0.90448111 -171.59325 -1.0961039
21.978024 -171.50716 -1.3988711
22.215055 -171.65106 -1.3252647
22.593498 -171.91084 -1.1955093
-14.081848 -171.11392 -1.1262934
-12.800022 -171.23792 -1.1439691
-11.779515 -171.14436 -1.0097412
-11.358669 -171.36902 -1.0213664
-9.0787506 -171.21439 -1.2332551
-8.8195896 -171.22537 -1.1654161
-8.3055115 -171.33897 -1.1421438
-7.9373188 -171.48364 -1.1340001
-7.2066689 -171.15034 -1.2242652
-6.4116349 -171.23503 -1.2637221
-5.2435541 -171.08601 -1.2185318
-4.692946 -171.22307 -1.1800052
-4.2188835 -171.11127 -1.2131932
-3.9454408 -171.26532 -1.2246411
-2.6241438 -171.45761 -1.0142848
-1.9766005 -171.39839 -1.3770955
-1.4382093 -171.39957 -1.21585
0.031566564 -171.0766 -1.2273505
3.3466096 -171.30098 -1.0650291
21.898777 -171.25952 -1.3427019
22.054111 -171.23291 -1.3595015
24.330809 -171.18837 -1.3239313
-32.170933 -170.96611 -1.0142435
-19.168797 -170.98524 -1.0054768
-17.24898 -170.84946 -1.0287411
-14.86108 -170.88977 -1.0566289
-11.940015 -170.87968 -1.1811594
-10.874453 -170.86591 -1.0818592
-10.272561 -170.88895 -1.1502552
-8.6743221 -170.79314 -1.2176085
-7.5365763 -170.54364 -1.1979959
-7.410871 -170.80034 -1.0122789
-6.6606598 -170.72078 -1.2308153
-6.0704699 -170.88405 -1.3095512
-5.5553393 -170.79286 -1.2570308
-5.3145814 -170.93539 -1.1245893
-4.6540775 -170.71458 -1.2724394
-4.3729959 -170.77029 -1.2546587
-3.1911638 -170.66933 -1.3319465
-2.7572815 -170.70354 -1.2968279
-2.3370602 -170.82581 -1.2356321
-0.76854682 -170.69391 -1.1221808
21.926859 -170.7155 -1.3373688
22.212633 -170.88152 -1.2718419
24.195002 -170.91869 -1.3158998
-17.935787 -170.41466 -1.0008178
-16.625818 -170.35172 -1.083174
-14.542438 -170.44394 -1.074379
-14.40988 -170.48213 -1.0421978
-13.640631 -170.41096 -1.0135647
-13.332319 -170.17416 -1.0668209
-12.584876 -170.16574 -1.0623113
-12.293214 -170.17229 -1.0403507
-11.177303 -170.31799 -1.1732783
-10.627069 -170.2038 -1.1266897
-9.8134775 -170.27492 -1.1645136
-9.4144421 -170.34332 -1.499065
-7.470685 -170.4119 -1.0686272
-6.7138 -170.43602 -1.3197842
-6.3599825 -170.39444 -1.4725673
-5.58954 -170.21918 -1.1612427
-4.4192181 -170.48238 -1.2280375
-3.5382018 -170.37946 -1.4399506
-3.4643517 -170.45329 -1.4238707
-1.857195 -170.41821 -1.0166453
2.8504546 -170.40985 -1.1741151
22.062284 -170.38916 -1.4749665
-15.053589 -169.84454 -1.0384572
-14.626196 -169.88625 -1.0186776
-11.853006 -169.91446 -1.1131892
-11.403881 -169.94585 -1.0254709
-9.6630363 -169.76559 -1.0211306
-8.708312 -169.80414 -1.2385988
-8.3667355 -169.91605 -1.2016146
-7.9321852 -169.71513 -1.103879
-3.2803516 -169.9306 -1.1753776
22.676899 -169.9263 -1.1301023
-12.281921 -169.32362 -1.4988972
-11.777196 -169.36191 -1.0910398
-11.19346 -169.2242 -1.0574416
-10.973067 -169.29779 -1.1043271
-9.7329435 -169.43546 -1.1656016
-9.3060741 -169.42384 -1.0014266
-8.7711763 -169.27168 -1.1357652
-8.283411 -169.21024 -1.1096842
-7.0407329 -169.34427 -1.2607051
-6.048357 -169.0737 -1.1608317
-15.401525 -168.74652 -1.0929404
-13.26177 -168.60661 -1.198058
-12.522175 -168.73973 -1.324173
-10.662592 -168.91034 -1.104198
-10.394001 -168.78578 -1.0206367
-9.6370983 -168.9151 -1.0750031
-5.655364 -168.55699 -1.0877953
-4.4462252 -168.69141 -1.2170516
5.6811113 -168.8526 -1.0292455
-14.631301 -168.09837 -1.1335025
-14.031039 -168.00914 -1.1744142
-13.996745 -168.0126 -1.1236492
-9.6565323 -168.42793 -1.0080721
-9.0872364 -168.0451 -1.0238296
-8.9646969 -168.0947 -1.0244621
-7.7644181 -168.13177 -1.0736774
-7.3980045 -168.41943 -1.1803991
-6.6835675 -168.17422 -1.1800482
-2.5322835 -168.05013 -1.4896904
1.0048031 -168.45578 -1.0245316
2.026618 -168.30142 -1.1091458
5.9011874 -168.27951 -1.0775099
6.1470752 -168.27724 -1.0574476
6.9785066 -168.39929 -1.119947
24.13241 -168.03143 -1.1531333
-15.177052 -167.9362 -1.1032206
-14.533024 -167.8483 -1.1595095
-13.801026 -167.90572 -1.154759
-11.618625 -167.84221 -1.2330035
-9.2541103 -167.75597 -1.4682555
-7.8172851 -167.99509 -1.0569197
-6.1925783 -167.60425 -1.2378409
-5.7768464 -167.5658 -1.0547235
0.56420875 -167.59172 -1.18207
1.4695842 -167.50134 -1.2402205
1.8306186 -167.87277 -1.1449546
4.9792261 -167.5784 -1.1335824
5.0248346 -167.5907 -1.0325928
21.73477 -167.73056 -1.3287631
24.046202 -167.65073 -1.1193253
-9.5494375 -167.33548 -1.0453826
-9.4355307 -167.10042 -1.1207669
-6.4306965 -167.32686 -1.4860089
-5.8046651 -167.48166 -1.0738682
3.4103522 -167.01401 -1.060032
7.7187052 -167.44739 -1.1868389
21.730957 -167.21635 -1.4535052
24.031771 -167.44249 -1.2954589
-52.299633 -166.68239 -1.0632485
3.4609571 -166.98135 -1.2179309
6.8338451 -166.80782 -1.041051
7.8766594 -166.6438 -1.1458237
8.1129961 -166.61142 -1.0427538
9.7431564 -166.74303 -1.0675615
-49.130692 -166.33078 -1.0403936
-14.048495 -166.03168 -1.0098884
-12.90068 -166.16252 -1.0210811
-10.781523 -166.36153 -1.0787601
-9.3600521 -166.48773 -1.2596561
2.004504 -166.42035 -1.0701485
3.3558922 -166.32982 -1.0665488
9.6434336 -166.43192 -1.0565066
22.120539 -166.13777 -1.2632886
-49.554043 -165.88797 -1.1450837
-49.429279 -165.95944 -1.0542463
-17.223961 -165.82083 -1.0290354
-16.136042 -165.65454 -1.0257509
-7.040144 -165.99359 -1.1888417
3.4627008 -165.56238 -1.1077788
7.9680486 -165.76164 -1.0211927
8.821723 -165.91792 -1.0176327
9.5368881 -165.51859 -1.1221493
21.317513 -165.96896 -1.0990357
22.932238 -165.53532 -1.3495095
-12.03284 -165.10593 -1.0460142
-11.414479 -165.01018 -1.0287839
-4.3659954 -165.48943 -1.0444133
3.4214549 -165.20282 -1.0392207
3.513993 -165.26198 -1.1163124
9.4923563 -165.2599 -1.1100657
-16.341171 -164.73912 -1.0062485
-15.895501 -164.539 -1.0572673
-12.984713 -164.68231 -1.0436974
-12.225822 -164.90004 -1.0693138
-11.547571 -164.93092 -1.0690541
-11.20511 -164.85789 -1.0226637
-9.7536278 -164.74663 -1.0741963
-9.3193617 -164.97629 -1.0282105
4.299809 -164.56102 -1.1091851
-49.814453 -164.46423 -1.1595597
-25.249611 -164.47809 -1.0845214
-14.79073 -164.40131 -1.0418246
-12.819773 -164.39783 -1.0483654
-11.796741 -164.43661 -1.0491611
-9.6927738 -164.34105 -1.0826516
-9.4405899 -164.31279 -1.0849297
-8.6745663 -164.28824 -1.1582657
-7.8008275 -164.32504 -1.1080464
-7.3696108 -164.12943 -1.1032767
-1.5432506 -164.37366 -1.1856011
9.8517036 -164.17149 -1.0103192
-54.268459 -163.71887 -1.0481164
-14.034874 -163.73091 -1.0472473
-11.321086 -163.67535 -1.0322154
-9.4734726 -163.7477 -1.0507859
-6.1289725 -163.57343 -1.0506352
-5.8131118 -163.5959 -1.11067
3.8244743 -163.51222 -1.2586834
-12.70131 -163.32217 -1.0704093
-12.305798 -163.32581 -1.0663549
-11.269242 -163.02057 -1.0381993
-10.807919 -163.07634 -1.1106753
-2.016536 -163.14583 -1.2559338
-1.9573568 -163.1461 -1.2743059
11.433314 -163.1544 -1.178053
-15.62943 -162.77588 -1.0267113
-14.654516 -162.60982 -1.0028081
-12.169297 -162.94373 -1.1361175
-10.75563 -162.81253 -1.0952828
-10.114899 -162.52818 -1.1911674
-1.5223844 -162.77219 -1.3052924
-1.4772652 -162.76501 -1.3397723
-0.26494291 -162.67255 -1.2287444
-23.283459 -162.35562 -1.0112996
-13.772691 -162.39493 -1.0143884
-13.429882 -162.0159 -1.0102251
-12.86685 -162.14926 -1.0475349
-12.283601 -162.48396 -1.0075151
-11.661439 -162.1582 -1.1048033
-11.244009 -162.12254 -1.029336
-10.857701 -162.4812 -1.0427126
-9.7468262 -162.04366 -1.0606673
-7.7294645 -162.31396 -1.1858965
-7.2658987 -162.15457 -1.2247688
-4.7996907 -162.30458 -1.0989966
-13.344886 -161.99005 -1.1017257
-12.403834 -161.9669 -1.0141331
-11.376522 -161.73341 -1.0183631
-10.790015 -161.86809 -1.0214862
-10.059705 -161.84543 -1.1095124
-9.8875713 -161.90797 -1.0818222
-8.8355694 -161.68384 -1.1072097
-7.0981922 -161.99521 -1.1833134
-6.9975176 -161.97984 -1.1804475
-4.4033608 -161.79863 -1.1587408
-2.0402832 -161.98039 -1.3807553
5.4707937 -161.71089 -1.4574087
-24.122244 -161.08144 -1.0784442
-11.614915 -161.49275 -1.0977057
-10.342489 -161.35838 -1.0531597
-9.5989189 -161.2388 -1.057808
-7.6545515 -161.24539 -1.0689325
-7.3648081 -161.41759 -1.1253597
-6.6875768 -161.4743 -1.1274656
-3.2760954 -161.44334 -1.2228354
-19.033085 -160.80934 -1.1379862
-13.751058 -160.66557 -1.0706078
-13.301569 -160.58212 -1.0698475
-11.392372 -160.55533 -1.0712187
-2.5327408 -160.90323 -1.4291977
-2.0721707 -160.53101 -1.4752936
6.7738647 -160.66884 -1.3966153
-16.381044 -160.42653 -1.0077103
-12.997701 -160.19994 -1.0269505
-12.278277 -160.19005 -1.0939707
-11.293652 -160.44212 -1.0004014
-10.221342 -160.21335 -1.1258583
-9.80933 -160.12402 -1.0814701
14.221807 -160.1982 -1.0793523
-24.194141 -159.50586 -1.0107336
-20.582613 -159.93364 -1.0906925
-16.713053 -159.59483 -1.1242865
-13.232101 -159.90875 -1.080054
-12.852089 -159.59222 -1.1074396
-9.8490686 -159.54308 -1.0382715
-5.6297317 -159.74579 -1.1560924
6.0729995 -159.78307 -1.3477952
7.1651974 -159.55525 -1.4267781
7.6807346 -159.74709 -1.2965616
-21.000313 -159.24118 -1.0592688
-16.141037 -159.34685 -1.0081204
-15.003899 -159.15179 -1.0707785
-14.419597 -159.35939 -1.0552486
-13.828622 -159.11061 -1.0460267
-13.204929 -159.07043 -1.0672907
-12.883615 -159.13103 -1.1960375
-12.229068 -159.4319 -1.0514182
-11.616239 -159.19005 -1.0495414
-10.073548 -159.42499 -1.0970449
-4.1483393 -159.31679 -1.3095934
17.106033 -159.1326 -1.0319165
17.530191 -159.47472 -1.0163139
-26.399185 -158.96802 -1.0058181
-25.277828 -158.74516 -1.0931129
-24.135921 -158.56593 -1.0868464
-23.038874 -158.61897 -1.001742
-19.911091 -158.50195 -1.0713798
-18.079098 -158.54791 -1.0209048
-17.933023 -158.61127 -1.040112
-16.715027 -158.6424 -1.0143502
-16.463869 -158.52197 -1.0278258
-15.845076 -158.55371 -1.1369092
-14.582794 -158.73724 -1.0487142
-14.288222 -158.83267 -1.0946956
-13.704035 -158.71591 -1.0172555
-13.429012 -158.77898 -1.0870831
-12.637477 -158.94228 -1.0671902
-11.803734 -158.6954 -1.0755597
-11.338845 -158.55743 -1.0638616
-10.551657 -158.6685 -1.1009523
-9.4077501 -158.69398 -1.0182382
-5.2489362 -158.97113 -1.1298715
-3.116396 -158.97876 -1.193378
-1.6028464 -158.55246 -1.2651294
12.36597 -158.94447 -1.085914
-25.54393 -158.12852 -1.0606227
-24.674553 -158.05219 -1.0345685
-24.304068 -158.2762 -1.0375043
-22.317537 -158.0909 -1.033808
-21.864883 -158.1906 -1.0424708
-19.727634 -158.44572 -1.0270249
-18.605665 -158.23238 -1.0604882
-17.237127 -158.26074 -1.0091652
-16.888824 -158.24313 -1.0514948
-16.175974 -158.36836 -1.0003659
-15.792009 -158.10522 -1.09714
-15.216064 -158.18274 -1.0455558
-14.273891 -158.13873 -1.0669931
-13.758733 -158.18253 -1.051656
-13.282598 -158.3998 -1.0743899
-12.317554 -158.41664 -1.0784985
-11.570668 -158.18658 -1.1399741
-7.8403149 -158.43152 -1.1189499
-2.2912021 -158.01982 -1.3542026
-1.4806685 -158.22118 -1.2651961
-25.475365 -157.87585 -1.0471311
-24.562147 -157.62456 -1.0534306
-24.215014 -157.78484 -1.0679653
-23.78042 -157.80309 -1.0757526
-23.293419 -157.755 -1.0133553
-22.643089 -157.73778 -1.0884315
-22.447994 -157.60162 -1.002543
-21.619284 -157.50749 -1.0424972
-20.37682 -157.80742 -1.009747
-17.215496 -157.76715 -1.0231365
-15.73781 -157.84074 -1.0768678
-15.18531 -157.64064 -1.0421495
-14.113688 -157.59103 -1.1007727
-13.769368 -157.61974 -1.1051438
-13.260585 -157.63322 -1.1815642
-12.726295 -157.88202 -1.0754585
-12.159284 -157.53748 -1.0914024
-11.810876 -157.68785 -1.1417631
-10.680161 -157.79492 -1.2525061
-10.273214 -157.76437 -1.1119115
-9.7078266 -157.78772 -1.0819571
-9.2761307 -157.95891 -1.1021639
-8.2483635 -157.83504 -1.1631106
-7.6996784 -157.92479 -1.0652267
-7.1076155 -157.73419 -1.080485
-6.9989448 -157.7247 -1.1018456
-4.9630527 -157.56166 -1.4268481
-2.9433773 -157.60948 -1.4077452
-33.003067 -157.4003 -1.3106787
-30.058277 -157.17702 -1.0976166
-29.595644 -157.19379 -1.0000634
-25.112144 -157.18036 -1.103521
-23.725704 -157.04527 -1.1137934
-23.296555 -157.24278 -1.0246592
-22.647648 -157.3844 -1.0615156
-22.234072 -157.30295 -1.0219427
-21.722769 -157.21497 -1.0493811
-20.657822 -157.07019 -1.0410266
-20.27396 -157.14905 -1.0985128
-19.829453 -157.44075 -1.0979826
-19.092003 -157.03377 -1.1408582
-16.601261 -157.38939 -1.0621833
-16.404499 -157.37642 -1.0386548
-15.554411 -157.45862 -1.0026196
-15.336679 -157.46596 -1.0583282
-14.928284 -157.31882 -1.05164
-14.182834 -157.28888 -1.096449
-13.855128 -157.30247 -1.0686724
-13.257304 -157.44 -1.0399255
-12.582909 -157.43666 -1.0822197
-12.375801 -157.2997 -1.0851905
-11.709578 -157.47517 -1.161844
-11.231855 -157.31342 -1.1179373
-10.869195 -157.31599 -1.1465734
-10.040431 -157.47939 -1.1657606
-9.2059402 -157.4072 -1.0626521
-7.8123446 -157.05339 -1.1815587
-3.6039288 -157.12973 -1.1803956
-0.67759341 -157.45018 -1.0291793
-26.52754 -156.92673 -1.0022315
-24.839632 -156.78575 -1.0723693
-24.323154 -156.73947 -1.0238087
-23.909536 -156.52873 -1.1103657
-22.721735 -156.62766 -1.0376625
-22.406487 -156.99136 -1.0109013
-21.907658 -156.90872 -1.0171204
-21.394604 -156.86308 -1.065596
-20.78977 -156.76035 -1.0856527
-20.263292 -156.80798 -1.1287504
-19.71557 -156.68234 -1.0807261
-19.12491 -156.63272 -1.0366975
-18.41185 -156.75813 -1.1620215
-17.91596 -156.65163 -1.1401123
-17.295223 -156.70514 -1.0570259
-16.360872 -156.91194 -1.3453364
-15.78159 -156.61855 -1.009795
-13.691557 -156.93503 -1.0994674
-13.264552 -156.86153 -1.0907084
-12.638887 -156.63838 -1.1607307
-12.346515 -156.69728 -1.1368706
-11.858919 -156.85706 -1.0333203
-11.207797 -156.8933 -1.0728115
-10.905393 -156.80925 -1.2151343
-10.155026 -156.81973 -1.1553389
-9.7766848 -156.63927 -1.1165984
-9.1743431 -156.65068 -1.212128
-8.888875 -156.60922 -1.1756217
-8.1953354 -156.84103 -1.183558
-7.8062892 -156.75388 -1.1976678
-5.7797885 -156.84061 -1.1413822
-5.2815723 -156.51266 -1.2907345
-3.6289132 -156.8521 -1.2319422
14.736668 -156.62695 -1.1890808
17.006269 -156.90547 -1.0102909
-25.404081 -156.19051 -1.0483652
-24.161491 -156.31163 -1.0711248
-23.728384 -156.40135 -1.0001842
-22.693882 -156.18152 -1.0414093
-22.073929 -156.10674 -1.0733616
-21.794182 -156.26932 -1.0815793
-21.360968 -156.38412 -1.1080787
-19.744484 -156.29759 -1.0620803
-19.3078 -156.29764 -1.0774939
-18.747675 -156.20024 -1.1273801
-18.305622 -156.08723 -1.1186407
-17.7017 -156.38293 -1.0691388
-17.173624 -156.26144 -1.1763436
-16.948122 -156.18068 -1.1643409
-16.260231 -156.0871 -1.2353714
-14.851506 -156.26871 -1.2272031
-14.341014 -156.46652 -1.0927107
-13.862147 -156.43077 -1.273033
-11.874041 -156.34198 -1.124409
-9.5457191 -156.20642 -1.2454498
-9.3817921 -156.24965 -1.2617002
-8.6257591 -156.38071 -1.1619023
-8.0660667 -156.36526 -1.1920198
-5.7947764 -156.31584 -1.2494346
-5.1966662 -156.1785 -1.4113605
-3.3323088 -156.24432 -1.2332648
-2.6063361 -156.05173 -1.2938393
-2.0921183 -156.35695 -1.3226781
-1.5039909 -156.02682 -1.2979931
-25.620266 -155.93454 -1.0691991
-25.337294 -155.99522 -1.2094123
-24.84643 -155.61983 -1.11092
-24.281191 -155.58261 -1.1395844
-23.855453 -155.55693 -1.0985096
-22.07725 -155.63358 -1.1344799
-21.1768 -155.7012 -1.071781
-20.510624 -155.87195 -1.1478645
-20.297688 -155.82346 -1.1209079
-19.699253 -155.8374 -1.0909439
-19.488466 -155.72049 -1.1760277
-18.691408 -155.86986 -1.1345601
-18.288511 -155.9604 -1.1703118
-17.71739 -155.68599 -1.0729167
-17.142746 -155.66827 -1.153681
-16.77021 -155.72844 -1.22796
-15.932148 -155.68747 -1.1792624
-15.122663 -155.65726 -1.1296823
-14.860306 -155.72078 -1.1988876
-14.277008 -155.66939 -1.2885672
-12.305223 -155.88179 -1.0354302
-10.436678 -155.61655 -1.2148136
-9.8191547 -155.53282 -1.0364097
-9.2477627 -155.73486 -1.2474903
-8.6305027 -155.94443 -1.1712241
-4.2670879 -155.64183 -1.2974538
-3.7926435 -155.71297 -1.3460004
-3.2482007 -155.91379 -1.380671
-1.8781857 -155.64911 -1.2937883
-0.10683171 -155.6468 -1.4001452
0.15954542 -155.89859 -1.3522239
-26.031704 -155.0697 -1.0075002
-25.939877 -155.03076 -1.0645796
-25.114836 -155.46582 -1.0653445
-22.735449 -155.1636 -1.1381333
-21.841846 -155.3627 -1.0644426
-19.362587 -155.2119 -1.1856537
-16.79162 -155.40475 -1.13319
-16.21924 -155.36888 -1.1351073
-15.707665 -155.30621 -1.1718247
-15.199737 -155.41814 -1.1514338
-14.62368 -155.20424 -1.1645979
-14.266922 -155.26204 -1.1903017
-13.357371 -155.00374 -1.1935179
-12.780092 -155.00211 -1.2660216
-11.341999 -155.26523 -1.0935472
-10.645421 -155.06589 -1.1255251
-5.0679331 -155.42462 -1.3253896
-3.8675716 -155.44156 -1.2620448
-1.9233185 -155.44899 -1.4008712
1.1055374 -155.44243 -1.4931667
3.2994068 -155.07365 -1.4934688
-27.338091 -154.89389 -1.0165856
-25.951889 -154.70445 -1.0023159
-24.055197 -154.92186 -1.0985374
-23.955639 -154.88615 -1.0536309
-21.885757 -154.76471 -1.1019197
-21.247458 -154.83385 -1.1453576
-20.00028 -154.74512 -1.3014411
-19.181593 -154.90509 -1.1695431
-18.819706 -154.81956 -1.1709112
-17.988581 -154.81425 -1.1742781
-16.649487 -154.84833 -1.1308622
-14.311079 -154.94397 -1.1462404
-12.179147 -154.71706 -1.2526189
-11.944068 -154.62766 -1.3090714
-11.254186 -154.75189 -1.2607284
-10.664313 -154.52499 -1.292303
-10.238357 -154.64491 -1.2969276
-8.7094736 -154.90274 -1.1087401
-4.6004796 -154.60736 -1.3396873
-4.2422915 -154.83173 -1.2203348
-3.890058 -154.6403 -1.3479903
-1.9365876 -154.72723 -1.4196614
-24.74292 -154.32292 -1.0251906
-24.463396 -154.35114 -1.0229273
-23.884445 -154.09764 -1.0264355
-23.306738 -154.05986 -1.0738926
-22.177805 -154.31265 -1.1147228
-21.759573 -154.30322 -1.0279875
-20.222786 -154.08734 -1.0591445
-18.215513 -154.049 -1.3122641
-15.447365 -154.07764 -1.107792
-13.508542 -154.06277 -1.1762698
-12.385571 -154.44901 -1.1216627
-11.496664 -154.41779 -1.2727203
-10.751378 -154.36362 -1.2706034
-10.342957 -154.14265 -1.2828991
-0.82221502 -154.37045 -1.4338197
-24.512114 -153.59744 -1.0149939
-22.332293 -153.93524 -1.0305927
-21.751348 -153.84346 -1.0547572
-21.464163 -153.7585 -1.0522668
-19.688038 -153.52023 -1.2673351
-18.590645 -153.6291 -1.1934059
-16.81963 -153.81816 -1.0311953
-15.007215 -153.61629 -1.0939229
-12.843533 -153.978 -1.2226937
-8.0279121 -153.7475 -1.419157
-7.9217625 -153.64052 -1.4089422
-7.1062584 -153.5934 -1.4116697
-4.9379277 -153.69388 -1.464802
-23.949425 -153.37331 -1.0418707
-21.860186 -153.28215 -1.0159948
-20.02697 -153.0593 -1.0201169
-19.671719 -153.11845 -1.1034197
-19.120438 -153.48236 -1.2420644
-16.113659 -153.38034 -1.1611786
-15.835141 -153.36754 -1.2909003
-12.781997 -153.13603 -1.3198724
-0.47499022 -153.32822 -1.213434
-7.9235764 -152.82698 -1.4786687
-4.6738224 -152.58307 -1.1797152
-34.738308 -152.33041 -1.0233665
-20.187628 -152.24454 -1.0579607
-17.312773 -152.25996 -1.094107
-13.726211 -152.09415 -1.3594918
-1.5873259 -151.93063 -1.3396415
-1.3904462 -151.58133 -1.3474283
-15.908016 -151.31984 -1.1664058
30.985294 -150.93802 -1.2139751
30.901144 -150.0903 -1.1046466
23.003052 -149.53369 -1.3533846
-25.274193 -147.65018 -1.0388606
-22.736706 -147.80881 -1.0463362
-21.121132 -147.45322 -1.0533202
-25.754959 -146.78302 -1.1591264
-27.862267 -146.30507 -1.0194696
-21.659496 -146.30943 -1.0707967
-29.185741 -145.5988 -1.0083153
-27.70418 -145.77539 -1.0179229
-26.889053 -145.63254 -1.0592231
-24.652552 -145.95436 -1.1214836
-30.280098 -145.42987 -1.0502191
-29.086607 -145.3418 -1.0230626
-28.857935 -145.37726 -1.0463924
-27.618515 -145.21376 -1.0618746
-27.166189 -145.2506 -1.0286975
-25.43799 -145.12297 -1.0419663
-22.677235 -145.00339 -1.171878
-20.465292 -145.25188 -1.0915897
-27.622816 -144.83922 -1.0764468
-26.106407 -144.62248 -1.0537492
-21.107845 -144.70676 -1.1291467
-29.385128 -144.4325 -1.0118481
-28.961788 -144.24327 -1.0161685
-27.761415 -144.42934 -1.0935597
-26.251081 -144.41078 -1.0981699
-25.567598 -144.31268 -1.0526767
-25.470789 -144.29755 -1.0203534
-22.583145 -144.27983 -1.0540262
-28.878593 -143.94223 -1.0699005
-26.156834 -143.89194 -1.0995326
-24.032429 -143.66544 -1.1480043
-27.035246 -143.25346 -1.0536288
-25.054955 -143.20831 -1.0856352
-24.92288 -143.35669 -1.1179316
-20.980719 -143.32925 -1.1570231
-25.377121 -142.67758 -1.0980494
-29.244888 -142.2663 -1.1981637
-27.887043 -142.29388 -1.1393763
-25.499081 -142.10287 -1.1238656
-29.845062 -141.72464 -1.0848386
-27.203917 -141.7095 -1.1500595
-25.665573 -141.72014 -1.0716689
-25.656118 -141.16914 -1.2319082
-21.867891 -141.28581 -1.157305
-26.967634 -140.72903 -1.2892288
-43.862949 -138.88185 -1.0515577
29.866892 -133.22246 -1.2973777
30.083263 -133.3399 -1.141755
29.66292 -132.86127 -1.1223911
-49.303619 -124.41651 -1.0218133
-41.655373 -123.80001 -1.0698642
-49.505302 -123.20023 -1.0492036
-46.711937 -122.43763 -1.0620127
-41.965378 -122.05544 -1.1253433
-47.840332 -121.891 -1.1331198
-38.790215 -121.98995 -1.2156736
-51.712662 -121.1252 -1.084517
-48.251602 -120.61162 -1.1304322
-44.695518 -120.75719 -1.0297115
-50.406982 -120.05759 -1.0430934
-48.199383 -120.49135 -1.1067699
-47.748997 -120.06046 -1.2479458
-41.368382 -120.11057 -1.1229451
-40.034779 -120.17012 -1.312166
-39.53545 -120.01091 -1.1830531
-51.998077 -119.95162 -1.0251852
-50.979065 -119.73978 -1.0355091
-49.142818 -119.93552 -1.0798656
-48.335266 -119.74206 -1.1237856
-54.371758 -119.22704 -1.0220373
-45.831924 -119.49595 -1.1219416
-41.578503 -119.40819 -1.1233416
-48.020496 -118.50496 -1.018085
-47.92828 -118.50503 -1.1338845
-45.992882 -118.7073 -1.0623292
-42.694344 -118.70667 -1.2375618
-57.854774 -118.22047 -1.0232279
-46.036789 -118.42207 -1.0102955
-45.101547 -118.29671 -1.0181381
-40.137329 -118.05613 -1.1807446
-55.13316 -117.50291 -1.0107427
-51.322067 -117.90865 -1.1077868
-50.849667 -117.94492 -1.1595405
-49.399689 -117.73129 -1.0431143
-47.076214 -117.51505 -1.1838653
-46.421986 -117.92149 -1.203855
-59.811584 -117.47824 -1.0944011
-59.042336 -117.3418 -1.1233239
-54.697552 -117.17953 -1.1167345
-54.298119 -117.08051 -1.0169111
-53.237003 -117.21034 -1.1392928
-52.91621 -117.07703 -1.1118265
-50.610332 -117.15826 -1.2653146
-49.55695 -117.33305 -1.0765097
-47.284836 -117.18033 -1.1709981
-59.506985 -116.55962 -1.0659883
-58.97002 -116.51202 -1.0363276
-57.62545 -116.7795 -1.1263171
-54.818382 -116.82985 -1.0787265
-54.128052 -116.84782 -1.1302094
-52.111237 -116.93088 -1.0885968
-50.22253 -116.80803 -1.1687206
-44.225735 -116.83986 -1.22761
-41.567638 -116.73492 -1.4705391
-41.435715 -116.64175 -1.279146
-62.182396 -116.23872 -1.000239
-61.659954 -116.21198 -1.0229909
-61.264244 -116.2318 -1.021054
-60.94986 -116.21411 -1.1253502
-59.909481 -116.39312 -1.0188227
-59.466862 -116.43601 -1.0139741
-58.284954 -116.05148 -1.0544915
-57.642994 -116.19901 -1.1153014
-57.369427 -116.15211 -1.0463916
-56.411674 -116.13715 -1.1317718
-55.471939 -116.10038 -1.0430787
-54.576656 -116.2543 -1.3448353
-54.31562 -116.03191 -1.215143
-53.643982 -116.05132 -1.3971348
-48.209118 -116.3959 -1.0982615
-45.937397 -116.22936 -1.0538872
-43.910233 -116.17608 -1.3060951
-41.236988 -116.1223 -1.299044
-38.285519 -116.03622 -1.1915095
-62.820908 -115.69828 -1.062825
-60.269398 -115.8339 -1.0582453
-59.67495 -115.85664 -1.0282838
-59.220615 -115.74173 -1.0137796
-58.628593 -115.55738 -1.1134079
-58.412666 -115.74998 -1.1043054
-57.105469 -115.65997 -1.0094495
-56.316303 -115.66634 -1.1091993
-55.945805 -115.61941 -1.108696
-55.350208 -115.7698 -1.181219
-54.835751 -115.85484 -1.188756
-54.173248 -115.72106 -1.1894537
-53.866402 -115.74799 -1.281692
-53.211391 -115.63273 -1.2048198
-52.744438 -115.75186 -1.2611557
-52.117992 -115.76636 -1.3487785
-49.762131 -115.686 -1.2463322
-46.695023 -115.56121 -1.1465391
-60.014004 -115.0601 -1.0570823
-59.204723 -115.03587 -1.0772283
-58.7682 -115.26882 -1.0758797
-57.780106 -115.15283 -1.1194676
-57.200836 -115.1957 -1.109787
-56.673622 -115.36378 -1.1025569
-56.252014 -115.29179 -1.1475503
-55.735382 -115.39545 -1.1128359
-55.259686 -115.31237 -1.1657072
-54.830418 -115.2002 -1.1749045
-53.037331 -115.29182 -1.1631799
-52.802006 -115.09831 -1.2284639
-52.257812 -115.31997 -1.1102428
-50.140743 -115.19028 -1.2603617
-49.502068 -115.12574 -1.192933
-49.270519 -115.15952 -1.3914888
-48.866199 -115.10624 -1.2575797
-47.102047 -115.15708 -1.2695719
-41.472534 -115.34769 -1.4533346
-39.914711 -115.0166 -1.4480358
-35.10527 -115.31689 -1.4631462
-59.629833 -114.86327 -1.0751001
-59.48214 -114.97546 -1.117281
-58.582478 -114.71205 -1.0963428
-58.279194 -114.7994 -1.0476223
-57.659191 -114.63219 -1.1008416
-56.569553 -114.69946 -1.2096325
-56.258434 -114.90536 -1.1448438
-55.287415 -114.71439 -1.2602483
-54.666138 -114.94574 -1.2181872
-54.262905 -114.75072 -1.1932821
-53.737179 -114.79704 -1.1370124
-53.165028 -114.72991 -1.1575357
-52.635296 -114.74673 -1.1665119
-52.233074 -114.60822 -1.1387376
-51.770241 -114.6629 -1.1017075
-50.201656 -114.83208 -1.2915242
-49.938019 -114.92422 -1.0872893
-42.492516 -114.76701 -1.447167
-60.45536 -114.39034 -1.027106
-54.653313 -114.33751 -1.2525251
-53.812595 -114.27068 -1.1767222
-53.304291 -114.2978 -1.1970924
-52.768578 -114.17167 -1.2575488
-52.217045 -114.32598 -1.1313413
-51.099365 -114.48663 -1.2547584
-48.889225 -114.1692 -1.3574132
-47.51247 -114.12542 -1.4009813
-47.34436 -114.31966 -1.4157064
-46.026054 -114.22218 -1.376711
-44.942699 -114.23225 -1.483678
-42.704746 -114.46411 -1.4592234
-58.425922 -113.81483 -1.1604289
-57.176197 -113.6116 -1.1273602
-56.208412 -113.82418 -1.0460927
-55.660442 -113.73966 -1.2047575
-55.218605 -113.5821 -1.1237552
-54.797859 -113.91312 -1.0975776
-53.972668 -113.83717 -1.0475538
-51.580364 -113.7871 -1.2049673
-51.24255 -113.66285 -1.1424685
-50.295277 -113.67593 -1.2134402
-49.776165 -113.67403 -1.3198932
-49.296474 -113.79288 -1.3174098
-55.780106 -113.48208 -1.038303
-55.155216 -113.48815 -1.0117624
-54.753872 -113.14297 -1.0474067
-52.370026 -113.26212 -1.0683384
-51.109219 -113.31903 -1.1588862
-50.930099 -113.3483 -1.1992599
-49.946472 -113.38675 -1.1974294
-49.305286 -113.24372 -1.2431928
-48.851463 -113.42381 -1.1852833
-48.049324 -113.10191 -1.1054953
-47.896626 -113.08746 -1.1098492
-49.730064 -112.86575 -1.3671892
-48.002453 -112.70065 -1.3344337
-47.849396 -112.87455 -1.2235757
-47.219246 -112.59433 -1.1564059
-45.128883 -112.74596 -1.4237452
-44.892532 -112.91631 -1.3509095
-48.349113 -112.18919 -1.1109643
-44.825706 -112.21416 -1.1856207
-44.325317 -111.60262 -1.0525068
-45.38607 -111.08143 -1.0279914
-36.688835 -110.13889 -1.4686841
-68.246948 -98.207001 -1.1396564
-61.99675 -83.50563 -1.1597037
-61.984573 -83.485771 -1.1831424
-62.328796 -82.602478 -1.0836924
-59.137321 -82.644577 -1.0581887
-59.521858 -81.966354 -1.0116513
-58.588497 -81.784668 -1.3663298
-58.936268 -79.840385 -1.0822417
-67.128769 -67.245392 -1.1162817
-58.76918 -66.016655 -1.0580629
-56.559189 -66.134888 -1.1856875
-62.016197 -65.746613 -1.0812694
-56.677319 -65.542221 -1.1489402
-57.886417 -65.194916 -1.027643
-56.657791 -65.493935 -1.2144786
-58.747791 -64.06765 -1.0125053
-56.479794 -64.011902 -1.042433
-43.339489 -63.109104 -1.0537362
-57.44083 -62.558643 -1.1227934
-61.71505 -62.414021 -1.0163133
-59.833969 -61.916061 -1.0687685
-51.082565 -61.595108 -1.0197492
-57.525051 -61.333633 -1.0943906
-44.143787 -60.803997 -1.1081542
-12.475286 -60.00964 -1.0285248
-25.651512 -59.533306 -1.0351496
-21.320843 -59.998798 -1.0011753
-32.429413 -59.281723 -1.0360929
-8.2573595 -59.224129 -1.385253
-15.869817 -58.721531 -1.1069034
-11.335516 -58.951328 -1.1607249
-24.610531 -58.009102 -1.3443937
-23.834854 -58.038216 -1.0183328
-22.423124 -58.045753 -1.0100634
-21.016779 -58.085564 -1.0972426
-20.855646 -58.086163 -1.0126054
-28.275434 -57.854942 -1.0234216
-25.131443 -57.927979 -1.0749578
-23.350414 -57.975925 -1.0107251
-22.800968 -57.643105 -1.0559102
-19.603041 -57.655426 -1.0320001
-19.350193 -57.763931 -1.0801311
-17.399612 -57.886887 -1.048157
-16.626884 -57.720619 -1.0516727
-15.517963 -57.826694 -1.0793372
-13.192287 -57.782738 -1.1938183
-11.596674 -57.764278 -1.1141659
-9.6132212 -57.744965 -1.1111393
-8.6499977 -57.908497 -1.1535012
10.906329 -57.820236 -1.4543673
-24.114513 -57.199642 -1.1659558
-23.990324 -57.197453 -1.0339454
-17.867815 -57.264008 -1.0256478
-15.810416 -57.027496 -1.1429365
-14.134944 -57.171471 -1.084365
-13.733414 -57.208736 -1.0813361
-12.403104 -57.08604 -1.1591454
-9.5425262 -57.184387 -1.1336184
-9.1187687 -57.230316 -1.1008046
-8.8162298 -57.050232 -1.1398759
-5.5754714 -57.317738 -1.1712486
-3.2975521 -57.364216 -1.0144913
-23.513258 -56.9193 -1.0119241
-22.591576 -56.672737 -1.0365603
-20.36294 -56.587692 -1.0447342
-17.733791 -56.839855 -1.1087673
-15.744126 -56.982052 -1.1816344
-13.206405 -56.633179 -1.0456123
-12.937561 -56.63073 -1.0976815
-10.107882 -56.996464 -1.0863425
-9.6605396 -56.702271 -1.0749218
-9.36765 -56.746937 -1.0576468
-8.9186525 -56.997967 -1.2291495
-8.2948952 -56.661625 -1.3109527
-6.8483682 -56.751949 -1.4163154
-5.7602129 -56.747009 -1.1191859
-28.054279 -56.139545 -1.0622885
-27.964968 -56.422649 -1.0658575
-26.426966 -56.461926 -1.0757282
-25.633232 -56.353455 -1.2236606
-24.127434 -56.360668 -1.1682554
-23.97764 -56.428169 -1.0020949
-23.149971 -56.400227 -1.0350989
-22.870852 -56.327988 -1.0024786
-21.583158 -56.218662 -1.0092189
-21.113569 -56.191376 -1.0811236
-20.74868 -56.106201 -1.0299264
-15.078221 -56.406448 -1.0558335
-14.488907 -56.452618 -1.0453122
-13.09013 -56.216164 -1.2454747
-12.628032 -56.137028 -1.0235014
-12.251686 -56.247143 -1.0528239
-11.7967 -56.216064 -1.0638483
-11.251479 -56.46344 -1.2047304
-9.3435059 -56.188141 -1.2326241
-8.7743731 -56.130795 -1.1575602
-8.3451672 -56.1297 -1.093165
-6.0201597 -56.344421 -1.0587006
-5.9147472 -56.203285 -1.2499154
-5.0217514 -56.135887 -1.3279645
3.0497825 -56.049198 -1.4543225
10.317726 -56.066715 -1.3864198
-28.027584 -55.970909 -1.1566489
-27.857086 -55.755447 -1.0213925
-24.936195 -55.560638 -1.0037451
-23.871078 -55.808643 -1.1210592
-21.503931 -55.750927 -1.029211
-21.245361 -55.677937 -1.0730306
-20.101206 -55.611053 -1.0687516
-19.220127 -55.706257 -1.1389432
-18.985216 -55.532085 -1.1663966
-18.102703 -55.822617 -1.082309
-17.641279 -55.759716 -1.0153615
-16.768847 -55.931248 -1.052187
-16.45027 -55.970154 -1.082087
-15.284472 -55.730629 -1.1475785
-14.088885 -55.584965 -1.1800286
-13.358814 -55.562576 -1.2005914
-11.600338 -55.89502 -1.2587162
-11.366058 -55.76918 -1.3130244
-10.803278 -55.787304 -1.0849434
-8.5729027 -55.585457 -1.1990423
-8.3674698 -55.761406 -1.0785203
-7.6171632 -55.947742 -1.0129805
-7.0574093 -55.691196 -1.0368432
-5.5621681 -55.790459 -1.0656713
-5.2002668 -55.762947 -1.0770302
-4.925405 -55.796158 -1.0667981
0.31055257 -55.721291 -1.2750878
3.2369072 -55.937042 -1.4121453
-27.953161 -55.404133 -1.0063864
-25.881653 -55.016491 -1.0004364
-25.212221 -55.332588 -1.1137449
-23.788631 -55.333225 -1.0161723
-23.3566 -55.256489 -1.01013
-22.561066 -55.046036 -1.0579901
-20.162289 -55.488987 -1.0446182
-19.729578 -55.349365 -1.1582706
-18.971287 -55.041374 -1.0068957
-16.132217 -55.462395 -1.0729659
-15.606862 -55.373524 -1.0981543
-14.621779 -55.339676 -1.147015
-13.303134 -55.156731 -1.0509768
-12.531689 -55.107262 -1.0533264
-12.18376 -55.254051 -1.0336797
-11.938515 -55.47213 -1.3305436
-11.396549 -55.053448 -1.125163
-10.747515 -55.053139 -1.1741736
-10.098525 -55.279526 -1.2366686
-9.8849936 -55.168518 -1.120416
-8.2721758 -55.162346 -1.1298445
-7.7959991 -55.207294 -1.0700555
-7.3896923 -55.291489 -1.1678671
-5.2986951 -55.296783 -1.1730944
-4.7571812 -55.349266 -1.3582557
-1.066905 -55.202919 -1.3053596
-0.82843721 -55.084541 -1.1269301
3.9234738 -55.452045 -1.4678019
-26.918221 -54.938702 -1.0987946
-23.276573 -54.983154 -1.0083675
-21.718206 -54.660236 -1.1562873
-20.27319 -54.641071 -1.1086681
-18.146402 -54.842823 -1.0134125
-17.52467 -54.772205 -1.0248798
-17.370674 -54.691284 -1.0472935
-15.512404 -54.933872 -1.1612858
-13.65464 -54.651814 -1.3340291
-13.208572 -54.75177 -1.0285707
-12.684122 -54.918907 -1.0180633
-12.415685 -54.797955 -1.1281817
-11.790835 -54.598728 -1.4066458
-11.201938 -54.877716 -1.1233168
-10.23443 -54.829067 -1.100949
-9.6738148 -54.92952 -1.3670572
-7.6917195 -54.96106 -1.1733462
-7.2356596 -54.645912 -1.3072575
-6.1418738 -54.543976 -1.3891892
-5.3440666 -54.744282 -1.1200608
-1.6750287 -54.99659 -1.2561479
-1.1937892 -54.82254 -1.4032962
-29.189371 -54.105682 -1.0532539
-22.625467 -54.330387 -1.0338097
-20.035194 -54.233589 -1.1578768
-19.839344 -54.179878 -1.0559912
-18.757769 -54.115311 -1.1871234
-16.09656 -54.401985 -1.0342357
-15.25946 -54.323196 -1.2631929
-14.544228 -54.317818 -1.060181
-14.372784 -54.272797 -1.0988251
-13.950626 -54.441032 -1.4323545
-13.301518 -54.458797 -1.1958711
-12.316489 -54.231949 -1.0546105
-10.400574 -54.368408 -1.3415673
-9.5711737 -54.149982 -1.1959924
-8.9115982 -54.256672 -1.046731
-8.242548 -54.422752 -1.0944746
-7.9428158 -54.313992 -1.0893148
-7.1198339 -54.222675 -1.1451361
-6.8423252 -54.16074 -1.1831067
-5.5417128 -54.447098 -1.2362725
-5.4343729 -54.265892 -1.2295977
-4.9496465 -54.002621 -1.2688984
-3.2116919 -54.168488 -1.0388756
-2.3949578 -54.136818 -1.0417322
1.5262504 -54.193989 -1.1457167
-21.043419 -53.892056 -1.0916406
-19.326235 -53.83292 -1.0808802
-18.910736 -53.674149 -1.0969306
-17.253214 -53.645947 -1.0275196
-16.704155 -53.759151 -1.1605511
-16.318434 -53.711536 -1.2599427
-15.734597 -53.552963 -1.1944201
-15.455439 -53.630104 -1.1157191
-13.589847 -53.692181 -1.3515283
-12.891543 -53.572655 -1.2926073
-12.223467 -53.634438 -1.0209739
-11.713474 -53.995625 -1.3200655
-11.317599 -53.580132 -1.1287541
-9.4274378 -53.665066 -1.253037
-8.7304707 -53.717964 -1.1761968
-7.9523644 -53.901146 -1.0589155
-7.3770232 -53.648499 -1.2559844
-6.83497 -53.813004 -1.1224178
-5.7138233 -53.698776 -1.212932
-5.3444772 -53.877422 -1.2059002
-2.8050361 -53.619358 -1.2308255
-1.2451574 -53.865131 -1.4508348
2.7400019 -53.670143 -1.3287996
-20.695343 -53.20356 -1.0376236
-20.188435 -53.342297 -1.1120524
-18.785526 -53.330559 -1.0492349
-17.994076 -53.29126 -1.0661825
-15.764715 -53.25528 -1.1881471
-14.852583 -53.244568 -1.2507985
-14.489882 -53.439747 -1.2717357
-13.956951 -53.025845 -1.1452229
-12.596756 -53.277687 -1.1890447
-12.297989 -53.103867 -1.2025185
-11.957279 -53.135155 -1.1606656
-11.202128 -53.151459 -1.1561203
-10.895033 -53.216034 -1.1111302
-10.324328 -53.027168 -1.2269334
-7.6883864 -53.280834 -1.1739403
-7.3784213 -53.310547 -1.2475048
-6.7709608 -53.052162 -1.0073358
-5.6668916 -53.027943 -1.1154963
-5.2154293 -53.017982 -1.0484831
-3.0422616 -53.281487 -1.1081398
-2.4493582 -53.458897 -1.0269039
-1.6158015 -53.106823 -1.0614715
1.1763847 -53.0121 -1.2599132
1.7118022 -53.074654 -1.1481528
7.3337288 -53.220448 -1.21392
7.6305265 -53.064133 -1.2766569
-43.081436 -52.907906 -1.0652981
-24.850346 -52.783894 -1.0098481
-23.024689 -52.623024 -1.2040408
-22.949778 -52.573063 -1.155665
-19.912958 -52.922806 -1.1556515
-18.389393 -52.519173 -1.0999703
-13.508906 -52.648106 -1.3124406
-13.310094 -52.706799 -1.2770907
-12.775092 -52.678112 -1.1980679
-12.255966 -52.72403 -1.1672293
-11.7573 -52.815079 -1.2945775
-11.351735 -52.883945 -1.2118368
-10.233302 -52.981781 -1.2407675
-9.4212122 -52.870338 -1.342656
-8.7411175 -52.81797 -1.0851564
-8.3917942 -52.793949 -1.0286052
-7.6536579 -52.964371 -1.2032294
-7.2168236 -52.739937 -1.0973054
-6.5618196 -52.917126 -1.2115841
-5.8120666 -52.635967 -1.2729195
-5.438839 -52.985935 -1.0519644
-4.6217899 -52.770218 -1.3103991
-4.0776334 -52.887909 -1.1840148
-3.1081376 -52.642555 -1.0584388
-2.5226278 -52.869984 -1.1147811
-1.793759 -52.606888 -1.2350245
-1.2060933 -52.825813 -1.0649323
-0.56080067 -52.656975 -1.0524564
-0.32282627 -52.624268 -1.1005609
1.3123832 -52.640682 -1.1204438
2.230422 -52.659733 -1.1355151
3.3946335 -52.978806 -1.3876323
14.771832 -52.730278 -1.213158
23.43572 -52.775257 -1.4839233
-19.080399 -52.383011 -1.0671645
-18.681145 -52.416256 -1.1005809
-12.875894 -52.181999 -1.2316996
-12.303092 -52.403011 -1.3553451
-11.785332 -52.309704 -1.2423658
-11.290128 -52.263065 -1.2681097
-10.690356 -52.24596 -1.4740882
-10.137811 -52.142822 -1.3512955
-7.506331 -52.407127 -1.1103674
-7.2900753 -52.202763 -1.4394367
-5.6680284 -52.041885 -1.2832963
-5.3925362 -52.081112 -1.4053253
-4.8503985 -52.452328 -1.0652922
-3.0309467 -52.050819 -1.0554413
-2.5268602 -52.008057 -1.0777335
-2.3610113 -52.227657 -1.1295006
-1.2713842 -52.332851 -1.0877157
0.71182042 -52.385254 -1.2114546
2.150846 -52.155491 -1.1581738
3.3300486 -52.310314 -1.3205403
3.701951 -52.076332 -1.0702894
4.15801 -52.209534 -1.1849513
9.0948887 -52.092979 -1.2910312
10.226354 -52.238018 -1.3305359
14.802482 -52.315407 -1.149966
22.761143 -52.038727 -1.2336156
-16.096109 -51.619797 -1.0088575
-15.405761 -51.918278 -1.1711659
-13.510383 -51.842159 -1.3121121
-12.168628 -51.965546 -1.1113234
-11.93154 -51.959667 -1.2020569
-10.60572 -51.882702 -1.1706456
-8.0977478 -51.88929 -1.3400248
-7.8298993 -51.626472 -1.4454471
-3.8634293 -51.711674 -1.3305362
-3.0712106 -51.985188 -1.2781198
-2.9351406 -51.979214 -1.3840137
-2.1405876 -51.666126 -1.0785135
-1.7014235 -51.509548 -1.0297463
-0.24865228 -51.721588 -1.1787121
0.20759402 -51.873207 -1.1925632
0.78232408 -51.724476 -1.1262213
2.2730105 -51.514957 -1.3175329
3.7423952 -51.954536 -1.1336808
4.1685143 -51.975883 -1.1270559
5.0175667 -51.964439 -1.0055141
6.441103 -51.610149 -1.2621497
6.5384679 -51.578018 -1.2617513
8.132863 -51.723545 -1.2522796
-20.642754 -51.063206 -1.1214404
-13.581127 -51.299076 -1.1596771
-11.581914 -51.213947 -1.174505
-10.86518 -51.412495 -1.3124663
-7.7774649 -51.482819 -1.1378137
-7.0783911 -51.257942 -1.2300988
-5.530333 -51.308468 -1.2887238
-4.6330686 -51.449196 -1.2427622
-4.0928507 -51.010361 -1.2752063
-3.8152449 -51.003658 -1.3641613
-3.0462048 -51.323437 -1.0623944
-2.871388 -51.297302 -1.0671247
-2.2071896 -51.320885 -1.1025441
-1.869768 -51.280025 -1.1079478
-1.1575727 -51.129772 -1.3085821
-0.57165962 -51.412563 -1.0924989
-0.45347345 -51.335407 -1.1554537
0.31302333 -51.340214 -1.1404034
0.77570069 -51.279289 -1.1479127
1.7045914 -51.268341 -1.1795987
2.3895106 -51.313656 -1.2303389
3.3164835 -51.329147 -1.2196282
3.6304576 -51.353771 -1.0982788
4.842412 -51.477509 -1.0554452
-5.7980995 -50.603394 -1.2742001
-4.033102 -50.970505 -1.2968708
-3.8115587 -50.86145 -1.1689949
-1.9552531 -50.818607 -1.0765598
0.3177661 -50.868858 -1.122978
1.3155258 -50.677261 -1.2391157
3.8408611 -50.698696 -1.1453004
4.7548676 -50.580982 -1.1773021
5.1805482 -50.699062 -1.1642903
5.792625 -50.676754 -1.2368584
6.3960018 -50.760521 -1.12924
6.561007 -50.763412 -1.188727
13.685785 -50.693867 -1.2500225
-9.6566753 -50.280434 -1.1584811
-5.091557 -50.351578 -1.0005339
-1.0960857 -50.277725 -1.0871418
-0.66681737 -50.075996 -1.169414
-0.18363552 -50.286514 -1.2485687
0.2805016 -50.27515 -1.1987787
0.73904872 -50.284588 -1.1406945
1.2536764 -50.218285 -1.12146
1.6606058 -50.151844 -1.229769
2.2097459 -50.225208 -1.1807621
2.6288023 -50.440643 -1.1100123
3.8265471 -50.384167 -1.1292639
4.2066431 -50.319019 -1.1396374
4.8236427 -50.173199 -1.1129194
5.3052015 -50.389221 -1.1719407
5.6842923 -50.332031 -1.0649102
6.3849506 -50.414303 -1.0248038
6.8143892 -50.184658 -1.191431
13.784441 -50.200981 -1.2862617
-34.50705 -49.87579 -1.053776
-8.002039 -49.550137 -1.4463811
-3.8523653 -49.513714 -1.100626
-2.7406447 -49.672974 -1.204078
-2.0893838 -49.704174 -1.1276692
-0.24459828 -49.78355 -1.2170821
0.37121424 -49.750847 -1.2381665
0.83976328 -49.734581 -1.1323662
1.182798 -49.678925 -1.1173625
2.106359 -49.510815 -1.1658189
3.5160484 -49.897499 -1.1392947
5.4679303 -49.727249 -1.1003019
5.9729905 -49.747116 -1.1926947
6.3248115 -49.633865 -1.2396164
6.8255625 -49.697945 -1.2391983
18.170795 -49.599236 -1.4694575
21.252556 -49.771542 -1.4987864
-0.2996991 -49.450985 -1.2964593
0.77240777 -49.328472 -1.1415026
1.0421169 -49.340729 -1.1745116
2.4347391 -49.305599 -1.4337438
2.8151731 -49.447342 -1.3002185
3.0512667 -49.083923 -1.051968
4.1117663 -49.360298 -1.4743725
4.7295809 -49.212929 -1.1808815
5.192596 -49.221146 -1.19438
6.3598795 -49.170712 -1.3045626
6.7067165 -49.119217 -1.4250077
12.41746 -49.155956 -1.1773252
13.311761 -49.402863 -1.2202643
13.851442 -49.374218 -1.0538069
15.693368 -49.123184 -1.3637697
16.927572 -49.259171 -1.4806603
17.131857 -49.136944 -1.4673396
18.438583 -49.273907 -1.4800814
18.85602 -49.482647 -1.4753282
19.115368 -49.125381 -1.4059974
20.068569 -49.232964 -1.4880452
21.10401 -49.46151 -1.4551048
-25.239725 -48.502312 -1.1408604
-9.0031033 -48.835136 -1.4064602
1.2186346 -48.692661 -1.2007912
3.7287908 -48.776688 -1.2467072
4.8299699 -48.796185 -1.1546992
5.239356 -48.743694 -1.0739714
6.2047849 -48.746449 -1.2061348
6.7479429 -48.865871 -1.3755838
7.7474799 -48.724247 -1.2879108
12.675087 -48.938061 -1.2446649
13.372918 -48.869991 -1.469678
13.822515 -48.801189 -1.2289828
14.026221 -48.911751 -1.4395677
16.060369 -48.648872 -1.2543758
17.873503 -48.669865 -1.4383419
18.220572 -48.766468 -1.4297924
18.782175 -48.705776 -1.4351778
-0.56038576 -48.320881 -1.4480877
-0.25694895 -48.263916 -1.3327729
0.47112134 -48.014908 -1.3250055
3.4865103 -48.269646 -1.3042711
3.7537346 -48.201035 -1.3038803
4.2879095 -48.115433 -1.1963172
4.7570534 -48.348816 -1.2533394
5.2532401 -48.182346 -1.324789
5.8644905 -48.459579 -1.1883855
8.4107437 -48.229195 -1.3297685
12.320435 -48.17448 -1.2060021
12.810282 -48.143532 -1.3155457
13.5573 -48.345043 -1.3655188
17.960047 -48.082668 -1.4299936
18.768787 -48.265076 -1.458155
19.101534 -48.403461 -1.4212643
19.768747 -48.139484 -1.4531176
21.99897 -48.455379 -1.378662
23.827171 -48.476177 -1.4160011
33.889496 -48.189732 -1.369589
34.227058 -48.056099 -1.4880275
-21.812546 -47.508007 -1.0391777
0.11533923 -47.842636 -1.3085589
4.2576475 -47.869064 -1.2914129
5.1557965 -47.913727 -1.0828331
8.4496975 -47.958527 -1.2722995
15.064177 -47.916019 -1.033227
17.382887 -47.990898 -1.4897785
17.819845 -47.593616 -1.4082304
18.400856 -47.639244 -1.4288925
18.734194 -47.738003 -1.4092007
19.230265 -47.695915 -1.4028165
19.918911 -47.644772 -1.4142801
20.372717 -47.727024 -1.4177771
20.747652 -47.896 -1.4239249
21.222017 -47.661423 -1.4844844
-22.216705 -47.04863 -1.088338
3.6972926 -47.024555 -1.2016382
4.9198666 -47.054005 -1.3968494
5.5417504 -47.215904 -1.3530612
13.618822 -47.320267 -1.1275108
15.267835 -47.01125 -1.1223829
15.988445 -47.084984 -1.1991962
16.232748 -47.064281 -1.2675357
16.760519 -47.190369 -1.3923432
17.266493 -47.201973 -1.3990107
17.726379 -47.207771 -1.3930999
18.239498 -47.209179 -1.3952433
18.814379 -47.126488 -1.4345584
19.174221 -47.199398 -1.4101993
19.715155 -47.157364 -1.4365869
20.355143 -47.231117 -1.4304051
20.723385 -47.210632 -1.4646323
21.257017 -47.198006 -1.437447
21.621746 -47.252781 -1.4914817
22.367928 -47.13105 -1.4802516
22.594452 -47.45549 -1.4039717
-15.285294 -46.653446 -1.114922
-12.783735 -46.644054 -1.0286787
-11.337308 -46.743896 -1.0677963
-0.74890423 -46.56131 -1.1492693
5.371294 -46.981651 -1.4428293
10.725146 -46.726326 -1.1870393
12.925529 -46.906372 -1.4903321
13.040662 -46.864002 -1.4743831
13.84594 -46.996799 -1.2134682
14.11662 -46.631912 -1.4738108
14.708781 -46.641266 -1.0692514
15.274243 -46.697144 -1.0641434
15.898018 -46.690865 -1.2464397
16.200768 -46.815662 -1.3221762
16.850225 -46.783756 -1.4213191
17.249718 -46.736855 -1.4361383
17.767929 -46.76495 -1.418983
18.233915 -46.659195 -1.4277631
18.792528 -46.719189 -1.4322853
19.250681 -46.77813 -1.4334778
19.673113 -46.758759 -1.4276497
20.269085 -46.812462 -1.4435766
20.726709 -46.741032 -1.4517336
21.052559 -46.515324 -1.4284378
31.40715 -46.656429 -1.0578215
31.618088 -46.618767 -1.0597738
35.574314 -46.606529 -1.3328601
37.982925 -46.575287 -1.1873989
38.00803 -46.55946 -1.2209095
40.352329 -46.616905 -1.3583087
-26.622307 -46.29644 -1.009493
-16.166937 -46.417706 -1.0997747
-15.692863 -46.322151 -1.1173465
-13.784937 -46.467888 -1.14683
-12.870488 -46.002117 -1.150699
3.1111696 -46.10833 -1.3384036
5.1258287 -46.355339 -1.467962
6.815598 -46.295525 -1.4710622
8.8243818 -46.198654 -1.0345613
10.637831 -46.28854 -1.3217275
11.950015 -46.022659 -1.1780087
12.095917 -46.158615 -1.2099559
13.264371 -46.166595 -1.2520205
14.766327 -46.01899 -1.2476153
15.089413 -46.083153 -1.1678381
15.923725 -46.161304 -1.3197906
16.189081 -46.195667 -1.353469
16.782139 -46.227989 -1.4323081
17.26819 -46.294003 -1.4402179
17.783329 -46.319241 -1.4444962
18.193378 -46.201172 -1.4617255
18.756409 -46.295563 -1.4703102
19.344507 -46.152763 -1.4484522
19.714014 -46.343792 -1.468565
20.10457 -46.300777 -1.4626757
20.714285 -46.21933 -1.4692096
21.013584 -46.28537 -1.4751089
31.319967 -46.156448 -1.126502
31.706402 -46.157074 -1.1559292
32.387383 -46.089626 -1.1659348
32.581493 -46.228958 -1.0439687
33.036621 -46.076359 -1.4484594
34.20467 -46.224255 -1.2553526
34.88483 -46.174988 -1.2318333
35.225224 -46.192188 -1.2689182
35.694138 -46.306484 -1.267714
37.273098 -46.312836 -1.1950084
38.136696 -46.141636 -1.2155281
39.178364 -46.267151 -1.2107178
40.429985 -46.094521 -1.3820755
-15.374058 -45.918232 -1.147831
-13.115389 -45.524406 -1.1430379
-12.91788 -45.996983 -1.2012641
-12.198373 -45.578259 -1.020081
-11.446664 -45.589748 -1.1665795
-8.76301 -45.818951 -1.0141171
-8.4663048 -45.784058 -1.1835351
-7.84164 -45.744476 -1.1123917
-3.1808951 -45.604851 -1.0152004
6.8162174 -45.673378 -1.0217388
7.5179272 -45.707813 -1.0953441
10.663824 -45.748375 -1.2517524
11.855479 -45.807457 -1.1227387
12.057085 -45.810825 -1.0976777
14.018783 -45.897869 -1.1424569
14.565919 -45.565578 -1.4918752
15.943668 -45.924988 -1.3375571
16.133896 -45.911495 -1.3038877
16.826813 -45.916306 -1.4607753
17.24946 -45.938274 -1.4336699
17.5429 -45.941517 -1.4617012
18.29497 -45.79221 -1.4732033
18.628683 -45.890347 -1.4625846
19.281881 -45.759705 -1.456923
19.664806 -45.805225 -1.4251683
22.548771 -45.806839 -1.4401748
31.350018 -45.839424 -1.1436841
31.750605 -45.75584 -1.1531878
32.294624 -45.752022 -1.2462933
32.725338 -45.697468 -1.1821374
33.33474 -45.753872 -1.2085834
33.723114 -45.588943 -1.3071835
34.156433 -45.598484 -1.1650753
34.80888 -45.825378 -1.218298
35.089344 -45.883339 -1.2637677
36.883987 -45.70573 -1.1827353
37.161064 -45.563362 -1.2259321
37.988808 -45.543732 -1.3061967
38.244427 -45.617035 -1.2532334
38.732525 -45.837337 -1.1717031
39.139896 -45.767467 -1.3281388
39.830883 -45.632446 -1.3007302
