# .PCD v0.7 - Point Cloud Data file format
VERSION 0.7
FIELDS x y z
SIZE 4 4 4
TYPE F F F
COUNT 1 1 1
WIDTH 1508
HEIGHT 1
VIEWPOINT 0 0 0 1 0 0 0
POINTS 1508
DATA ascii
188.94083 46.849167 -0.59495634
189.1884 46.661629 -0.58757037
190.2016 46.679047 -0.70218921
191.4931 46.536587 -0.63478875
192.34137 46.523006 -0.91771621
163.66708 47.21756 -0.54594892
165.24554 47.149181 -0.52178568
169.42892 47.268307 -0.61817294
169.68561 47.212639 -0.86573327
172.20284 47.221348 -0.77332902
172.80115 47.209373 -0.7971859
173.2774 47.355244 -0.69076937
173.7442 47.270344 -0.7383132
174.19897 47.179878 -0.75182462
174.67339 47.063931 -0.73537642
175.2094 47.16235 -0.74217492
175.75363 47.185432 -0.72867173
176.28879 47.345306 -0.75055021
176.81555 47.282997 -0.76082975
177.27101 47.213631 -0.78908765
177.74666 47.295982 -0.79816836
178.24992 47.366253 -0.80734587
178.79802 47.369194 -0.74917156
179.20348 47.340382 -0.71997041
179.74379 47.328869 -0.80336595
180.24664 47.306587 -0.82178885
180.7233 47.18911 -0.840482
181.334 47.167099 -0.83901739
181.73949 47.2533 -0.81427366
182.30852 47.364784 -0.75799203
182.74377 47.240948 -0.81114292
183.20888 47.281857 -0.78499728
183.95987 47.200699 -0.73305291
184.22147 47.237743 -0.88844252
184.66695 47.203529 -0.678285
185.96971 47.145611 -0.70888209
186.25174 47.221096 -0.75391078
186.72221 47.223068 -0.81028575
187.77919 47.17881 -0.66814011
188.27998 47.145031 -0.64040422
188.5717 47.390789 -0.60275197
190.64104 47.249096 -0.62140846
191.08548 47.428841 -0.60091078
192.10571 47.475494 -0.61640292
165.81335 47.654022 -0.54660404
166.01845 47.629765 -0.54049855
167.12576 47.852135 -0.54640263
171.95297 47.666466 -0.50956821
172.42722 47.639877 -0.5718419
172.76343 47.72139 -0.68232781
173.15546 47.681767 -0.71888012
173.82353 47.760849 -0.74246532
174.18921 47.70578 -0.66155243
174.85216 47.711864 -0.80714703
175.3362 47.767231 -0.65458584
175.82819 47.889034 -0.74422914
176.22365 47.858788 -0.76936781
176.82451 47.816422 -0.6851933
177.21834 47.71344 -0.72885495
177.75813 47.785896 -0.69837332
178.2244 47.68832 -0.76920074
178.74211 47.796116 -0.69807565
179.27275 47.897041 -0.7690655
179.66238 47.709106 -0.78352731
180.23747 47.628487 -0.78618288
180.75563 47.703659 -0.79903811
181.16948 47.66605 -0.77755922
181.80228 47.767452 -0.81091118
182.23283 47.734894 -0.80008256
182.96468 47.883556 -0.80224562
183.36063 47.742928 -0.76191986
183.78371 47.808693 -0.77286321
184.293 47.694153 -0.7678107
184.69597 47.660805 -0.81864417
185.42189 47.767044 -0.82707387
185.88654 47.533104 -0.64651132
186.80614 47.712936 -0.62866485
187.10632 47.871632 -0.53466928
189.77312 47.751068 -0.60723943
190.00424 47.629932 -0.56468743
191.82921 47.99976 -0.5600419
192.09326 47.500351 -0.60931218
161.368 48.128819 -0.54434651
161.78676 48.140568 -0.53176254
170.07033 48.461517 -0.67072403
171.45273 48.007832 -0.70965487
171.54434 48.167336 -0.61750525
172.16161 48.218578 -0.58059865
172.7872 48.134148 -0.63033432
173.27409 48.223606 -0.63122982
173.51636 48.085617 -0.6733973
174.35054 48.187122 -0.57646966
174.86157 48.232174 -0.71946883
175.2836 48.264984 -0.73483193
175.61656 48.370686 -0.5752883
176.24553 48.245998 -0.72820204
176.71962 48.302887 -0.71693969
177.23949 48.250095 -0.74777478
177.74136 48.236839 -0.72487706
178.31413 48.216244 -0.85440236
178.7558 48.222 -0.74139017
179.27989 48.18803 -0.74312562
179.68587 48.248348 -0.67813462
180.32994 48.206364 -0.71461928
180.6239 48.31282 -0.70568115
181.25896 48.235859 -0.78758144
182.12822 48.050457 -0.73858654
182.76959 48.135929 -0.61716563
183.89166 48.161278 -0.8815577
184.11389 48.214046 -0.8853792
184.89542 48.351055 -0.74536717
185.38383 48.313908 -0.65056306
188.30135 48.3223 -0.55545366
188.64186 48.326488 -0.58879298
189.51941 48.032494 -0.55849636
191.83221 48.344055 -0.66330671
161.13181 48.535084 -0.58133882
161.96497 48.705479 -0.6206876
162.07031 48.830578 -0.61273217
166.11919 48.586685 -0.50751662
167.58841 48.7155 -0.57842135
170.20708 48.746769 -0.65667003
171.46295 48.634571 -0.64691406
171.72289 48.712105 -0.67439139
173.42409 48.696075 -0.53595978
173.6344 48.57531 -0.70155251
174.30284 48.801281 -0.67405343
174.79292 48.78577 -0.62990886
175.4136 48.665382 -0.59813559
175.71811 48.6507 -0.78360128
176.16516 48.687519 -0.72339666
176.71539 48.774765 -0.68923885
177.18024 48.853943 -0.76017839
177.81985 48.704075 -0.71722645
178.22801 48.685909 -0.73109365
178.72502 48.529915 -0.74078739
179.2171 48.668621 -0.74432099
179.74739 48.556824 -0.62227809
180.25238 48.797344 -0.65833747
180.63913 48.679958 -0.70176125
181.24695 48.696163 -0.73377305
181.77298 48.818089 -0.73855758
182.09186 48.732269 -0.66893142
183.19551 48.61816 -0.66649741
184.51956 48.762016 -0.66309333
186.11565 48.518948 -0.68427569
187.31149 48.727692 -0.62834716
187.54933 48.631695 -0.60746497
188.71219 48.93111 -0.59765244
189.28073 48.916153 -0.55354333
190.78741 48.79932 -0.53816873
191.34642 48.80687 -0.57816148
216.52663 48.985714 -0.99116588
161.46983 49.053967 -0.50664937
163.103 49.213642 -0.5239597
168.85568 49.452591 -0.56523329
169.52576 49.236748 -0.5586291
170.24304 49.012684 -0.56591755
171.8756 49.113995 -0.58970171
172.46619 49.263542 -0.54579729
173.28896 49.28973 -0.63680869
173.96301 49.069805 -0.60991281
174.21591 49.155819 -0.69567704
174.70325 49.13504 -0.86088866
175.33241 49.232925 -0.70229918
175.73265 49.27615 -0.66890395
176.29118 49.237072 -0.68935788
176.61032 49.260891 -0.68875599
177.16481 49.243881 -0.79079485
177.64519 49.374165 -0.75104231
178.30782 49.202053 -0.59675854
178.71492 49.048393 -0.75858223
179.2953 49.15551 -0.68958515
179.59267 49.271271 -0.59362459
182.42293 49.242111 -0.63693756
182.68765 49.411476 -0.66841757
183.77356 49.357704 -0.64471924
184.23311 49.292858 -0.63811249
184.99463 49.408062 -0.6825906
185.02568 49.419502 -0.66279805
187.53857 49.451248 -0.57957083
188.72906 49.494774 -0.54213011
190.35481 49.210922 -0.5647766
192.04765 49.151543 -0.6042645
151.86746 49.751842 -0.58725464
168.78078 49.615948 -0.61187357
169.59143 49.948395 -0.62570691
171.53392 49.534077 -0.71881557
172.32233 49.784561 -0.68481654
172.73605 49.837341 -0.60948932
173.28622 49.593822 -0.79847515
173.63025 49.820679 -0.54377252
174.86317 49.810638 -0.67985266
175.16661 49.749702 -0.69025958
175.62895 49.713917 -0.76642364
176.15166 49.824905 -0.7085734
176.55235 49.6096 -0.65858525
178.16565 49.619335 -0.55643058
180.20512 49.627251 -0.60709321
180.68303 49.786991 -0.66233915
181.98898 49.996643 -0.61989856
182.26575 49.877625 -0.64161021
185.22644 49.581829 -0.62106514
185.75479 49.674107 -0.63944286
187.19267 49.701366 -0.54971147
187.88947 49.876598 -0.56054497
189.15343 49.735176 -0.58850765
190.08417 49.667572 -0.67416239
190.59035 49.740177 -0.54751587
165.15701 50.286674 -0.55950552
170.36043 50.047329 -0.57824808
171.30936 50.333069 -0.72946215
172.75694 50.441521 -0.59331721
173.16516 50.165089 -0.59702915
173.68713 50.279419 -0.65861052
174.34291 50.233879 -0.72945225
174.80936 50.102093 -0.57064509
176.19252 50.191525 -0.71043462
177.22974 50.204475 -0.5465048
177.80696 50.074566 -0.55395675
178.91121 50.111485 -0.56579512
181.80902 50.090332 -0.6203633
182.06639 50.012714 -0.61587334
185.41284 50.192368 -0.71761507
187.04482 50.497452 -0.61200511
188.9801 50.299927 -0.58221334
189.04976 50.034721 -0.59284341
190.89243 50.422867 -0.51854444
163.16983 50.686031 -0.50236458
163.95244 50.550381 -0.6622231
170.34386 50.813557 -0.52473485
171.47485 50.903957 -0.70423472
172.65103 50.868259 -0.77650398
173.23909 50.542694 -0.68309045
173.51401 50.806252 -0.65263653
174.29333 50.551933 -0.76351082
174.53424 50.68187 -0.75639737
175.72878 50.715405 -0.50169754
176.25098 50.740299 -0.51451808
177.04073 50.523571 -0.52280354
179.63872 50.559387 -0.5961532
181.55815 50.5438 -0.62171882
182.52811 50.567413 -0.60926592
185.41441 50.944359 -0.62132537
185.81384 50.681122 -0.7211225
186.71129 50.979279 -0.56546128
187.04869 50.512505 -0.55876023
187.7529 50.542843 -0.74468321
188.26817 50.835888 -0.53771079
189.70616 50.807484 -0.52710205
191.29607 50.659542 -0.55005592
215.31676 50.992023 -0.66917485
215.86569 50.538666 -0.65545315
169.60547 51.266548 -0.54250622
170.2585 51.032063 -0.76758796
176.90099 51.034519 -0.5111798
182.38046 51.392334 -0.62072074
183.26208 51.046116 -0.64400166
184.69096 51.392357 -0.5959506
185.21352 51.352722 -0.63951939
186.06068 51.053764 -0.79125118
186.85645 51.028706 -0.51207525
188.52429 51.249084 -0.55098629
192.11734 51.248341 -0.52934426
215.46625 51.102779 -0.83710653
156.52859 51.713596 -0.5138213
166.42592 51.925129 -0.72648489
169.78333 51.722256 -0.53418267
171.84816 51.726543 -0.58132321
174.26338 51.807716 -0.52168787
174.54852 51.907509 -0.55569571
179.27635 51.885021 -0.56317908
183.14911 51.935646 -0.64748299
185.53288 51.853661 -0.62071037
188.17526 51.973625 -0.53214759
191.65678 51.962826 -0.52089268
192.30957 51.805885 -0.54163212
157.24811 52.407681 -0.50282866
177.67705 52.41737 -0.51811057
180.34572 52.425304 -0.58032829
180.53889 52.459747 -0.57571948
182.39777 52.193352 -0.61803341
182.57179 52.122833 -0.62115425
183.27425 52.415848 -0.58250374
183.97528 52.15889 -0.582582
184.72968 52.24889 -0.53149927
188.26631 52.221741 -0.51571828
189.3463 52.446583 -0.5709905
190.48206 52.032116 -0.56823725
192.00287 52.106285 -0.54930103
215.54701 52.07568 -0.64564103
159.23869 52.766693 -0.55632818
165.16965 52.628422 -0.50740278
166.91483 52.992413 -0.5475927
178.44778 52.837536 -0.52733767
178.79434 52.882759 -0.52992219
179.07523 52.961212 -0.53538823
180.34509 52.653942 -0.6056273
182.17798 52.972134 -0.59594846
183.18002 52.506367 -0.59803164
185.10652 52.963287 -0.65107375
189.32233 52.710304 -0.52586287
190.78722 52.877403 -0.57016581
158.14638 53.165863 -0.575387
166.71678 53.051228 -0.51071864
167.46051 53.231045 -0.5205375
167.57335 53.21088 -0.53025597
170.44966 53.412319 -0.52946132
181.5591 53.395809 -0.53378898
182.16754 53.26833 -0.58030397
182.791 53.265778 -0.69642603
190.43782 53.097622 -0.54710615
190.65569 53.037743 -0.56660497
192.45697 53.215572 -0.57278174
175.73877 53.829041 -0.56344295
180.96967 53.943722 -0.53527391
183.24583 53.670891 -0.60930192
183.86159 53.585999 -0.56024545
186.65102 53.872711 -0.59456098
188.91095 53.600342 -0.53457087
189.11589 53.57637 -0.5342446
190.60776 53.917896 -0.63235086
191.89758 53.777973 -0.58470857
160.00368 54.119583 -0.5458405
171.11833 54.184986 -0.54725456
175.55586 54.292004 -0.54038393
182.75882 54.450874 -0.58962059
188.5743 54.183117 -0.59496474
191.91023 54.492641 -0.62211424
192.18744 54.356174 -0.59769559
166.21869 54.561562 -0.50740772
181.36707 54.760197 -0.56676042
182.81003 54.794411 -0.60207379
183.98456 54.81234 -0.53990799
184.15251 54.66309 -0.52565956
188.19818 54.690678 -0.53601104
189.01511 54.638596 -0.56351876
189.88611 54.770962 -0.55112565
190.04102 54.733097 -0.54767966
191.05431 54.719765 -0.54380798
191.66368 54.641155 -0.55734283
192.06628 54.579315 -0.56072515
165.56528 55.398743 -0.59798247
166.27217 55.010799 -0.57242984
177.09241 55.140717 -0.57821441
181.60448 55.499359 -0.50599378
184.71027 55.371216 -0.54042459
189.69473 55.067783 -0.65912539
191.28168 55.195633 -0.57306921
171.63686 55.93811 -0.52360618
176.24579 55.959087 -0.53610408
179.95256 55.950516 -0.53638309
181.6022 55.546539 -0.50746691
182.74547 55.545513 -0.53923881
183.40884 55.579872 -0.62657082
184.9716 55.834339 -0.59579057
187.07463 55.880955 -0.67779726
187.71848 55.973877 -0.55847251
211.84831 55.563717 -0.96568185
170.95758 56.341949 -0.52980179
174.97415 56.317535 -0.63486326
175.16629 56.077538 -0.76619816
175.73222 56.240471 -0.57669705
180.17734 56.100471 -0.56077331
182.21486 56.126484 -0.66017556
185.88533 56.487648 -0.57624495
187.53247 56.139648 -0.5481956
188.44507 56.382099 -0.52136189
188.54523 56.279919 -0.53599966
191.05797 56.094559 -0.50328571
169.40236 56.8769 -0.5885886
171.75494 56.78241 -0.52184868
174.31386 56.870331 -0.5019061
183.37962 56.839245 -0.51581597
185.86487 56.510723 -0.57242137
186.73882 56.538815 -0.50886667
187.28838 56.599834 -0.52747786
189.29526 56.672523 -0.54124421
174.37869 57.446339 -0.52385032
174.52016 57.461571 -0.70115232
175.57117 57.09684 -0.57465661
185.70595 57.408989 -0.54998946
186.00502 57.030151 -0.58698386
189.7625 57.308311 -0.54366648
192.51425 57.097733 -0.60791183
156.98247 57.919754 -0.54463589
174.34793 57.600864 -0.53738499
184.11922 57.994446 -0.57726568
188.22397 57.930286 -0.54932219
189.03595 57.866051 -0.52899534
192.25369 57.700451 -0.64835501
156.83803 58.468666 -0.52407229
157.00986 58.388172 -0.51445961
163.58708 58.007595 -0.53530371
166.86809 58.041183 -0.54618388
170.46715 58.253487 -0.50686097
173.47162 58.047791 -0.58612764
173.53104 58.129795 -0.54373497
183.2093 58.476288 -0.58404559
186.91769 58.394966 -0.54826689
188.30391 58.143906 -0.55961186
189.35609 58.395149 -0.58736801
192.38023 58.037491 -0.61368072
150.99261 58.548782 -0.69952184
159.17479 58.693295 -0.50978142
174.10442 58.659622 -0.58346653
177.98845 58.540936 -0.57403201
178.43848 58.656612 -0.54973364
179.21188 58.840195 -0.5025301
188.65746 58.95908 -0.54811954
157.40132 59.256104 -0.56073558
159.77415 59.073875 -0.69406992
173.79276 59.262375 -0.55390239
179.62163 59.250069 -0.5398109
186.9818 59.091026 -0.56815869
188.62717 59.033165 -0.55289119
191.62848 59.433678 -0.7457608
192.16019 59.193836 -0.76747978
213.13507 59.365707 -0.98091483
160.11493 59.655445 -0.51045948
177.65321 59.624531 -0.52459151
178.54099 59.621861 -0.62652916
180.82246 59.961842 -0.52121776
184.26715 59.993244 -0.59630519
187.0844 59.754059 -0.61866069
187.65251 59.90411 -0.59067661
188.83707 59.81992 -0.5891223
191.62372 59.611889 -0.57904464
180.34189 60.040817 -0.57108617
180.55429 60.075607 -0.5612967
182.7666 60.188389 -0.55475551
184.44173 60.169579 -0.6228931
187.12079 60.097221 -0.62291002
187.64996 60.125416 -0.5694977
188.99974 60.002186 -0.51753509
189.04248 60.015991 -0.55561084
191.96048 60.477703 -0.63064575
169.2215 60.869732 -0.54243815
170.3203 60.556087 -0.56266201
172.65585 60.666641 -0.51135689
173.99644 60.635189 -0.52769387
174.00598 60.648785 -0.50004458
175.18744 60.896923 -0.5401994
175.82352 60.566097 -0.62606871
176.04802 60.794167 -0.57398748
190.91731 60.886681 -0.68234766
191.93764 60.524002 -0.62693304
177.27473 61.34444 -0.56449157
180.39563 61.302624 -0.60356551
186.09442 61.144966 -0.59116679
187.00708 61.112202 -0.67306638
190.38338 61.374332 -0.67390639
191.289 61.370041 -0.58567661
191.93478 61.190296 -0.64702833
192.39629 61.280285 -0.72176987
158.6973 61.696842 -0.52145201
159.4969 61.816296 -0.53633142
175.58514 61.687798 -0.82702857
184.41342 61.875793 -0.54278612
185.89409 61.752083 -0.56552541
190.40459 61.774387 -0.5630241
214.76341 61.994759 -0.87471682
163.66783 62.045151 -0.68563712
167.39975 62.435974 -0.6515696
186.92102 62.150002 -0.52402902
187.52191 62.416451 -0.62743556
188.54826 62.466537 -0.62270272
190.23131 62.321712 -0.59663647
191.70396 62.186295 -0.61232543
214.75281 62.006599 -0.84137285
167.29407 62.616955 -0.59721547
181.26025 62.905888 -0.53178906
184.89236 62.558052 -0.50054729
185.97597 62.901329 -0.50634736
186.16205 62.784264 -0.5280863
140.9433 63.191734 -0.80622065
167.65088 63.483627 -0.5457812
169.75562 63.476841 -0.55789757
173.68948 63.316677 -0.5467748
187.94188 63.041462 -0.54812944
214.34879 63.328934 -0.59768271
141.27025 63.752541 -0.75737619
168.39017 63.738525 -0.57177842
171.16939 63.828522 -0.62488526
172.05177 63.512325 -0.55042148
188.20538 63.820766 -0.63035661
215.03546 63.738678 -0.86899245
178.39693 64.440948 -0.5808453
185.87399 64.093399 -0.53827322
186.39711 64.184067 -0.57601792
186.5325 64.058151 -0.54327369
187.50427 64.233704 -0.57628089
188.3084 64.320999 -0.54031855
192.31535 64.323952 -0.73859739
149.60361 64.961922 -0.5293386
153.0974 64.710625 -0.51789135
175.88109 64.933868 -0.61186945
176.16455 64.737656 -0.52192605
188.39304 64.928635 -0.71332443
189.53418 64.769371 -0.61678976
190.96291 64.898399 -0.65289408
192.0257 64.764938 -0.68758047
214.40372 64.635353 -0.97844768
155.60193 65.062981 -0.66019636
160.41931 65.188972 -0.54865068
170.18463 65.113472 -0.63046157
176.25337 65.104347 -0.60931534
154.63521 65.787514 -0.63142884
183.61566 65.974426 -0.56249911
184.44754 65.673836 -0.53115517
188.06439 65.952148 -0.65929788
188.95447 65.774475 -0.60071111
182.94647 66.294464 -0.51914883
188.00623 66.125229 -0.57689297
190.09026 66.002144 -0.6011948
159.43736 66.907974 -0.50671971
159.98749 66.899094 -0.52218491
175.00412 66.925049 -0.70278096
177.86407 66.639191 -0.55657053
159.41429 67.261375 -0.50578529
161.58926 67.413193 -0.51187891
172.6824 67.267487 -0.72548008
175.59424 67.344543 -0.65285879
187.85527 67.165001 -0.62903047
190.35767 67.281593 -0.70955712
191.25931 67.450233 -0.71647775
191.77586 67.191994 -0.81819332
192.05379 67.118233 -0.57485288
211.98672 67.081459 -0.9427948
161.44098 67.563568 -0.53041083
185.39505 67.909149 -0.61764777
188.46872 67.808716 -0.51297361
190.54082 67.843597 -0.72111052
191.2453 67.534546 -0.77429873
192.38638 67.653992 -0.76014781
171.49957 68.410912 -0.55938488
171.50302 68.417267 -0.51867777
186.4673 68.102692 -0.73202384
188.09322 68.082176 -0.50963324
189.69893 68.399536 -0.65748554
190.4397 68.39167 -0.78166467
190.92696 68.297363 -0.67347044
213.92781 68.257622 -0.73475665
167.29268 68.983902 -0.57486606
168.92747 68.771362 -0.62538475
169.55872 68.69075 -0.53665465
172.00868 68.605827 -0.56252438
172.64638 68.870827 -0.71627259
177.32051 68.934555 -0.60069996
185.20619 68.944756 -0.53670788
187.76566 68.624741 -0.70945442
190.93721 68.500038 -0.66272897
191.42876 68.923401 -0.769696
211.75356 68.997177 -0.87502337
161.15697 69.24221 -0.55251133
168.66084 69.08535 -0.58233106
172.07417 69.449097 -0.66362834
182.963 69.335617 -0.54983151
185.06238 69.054649 -0.57738519
187.77905 69.419296 -0.63725609
191.4016 69.186165 -0.74895418
212.17043 69.023193 -0.84055418
160.22418 69.758522 -0.63853675
184.26733 69.755196 -0.59192508
186.61137 69.81118 -0.54790729
189.05911 69.637123 -0.69243431
190.6692 69.721245 -0.69253671
192.38153 69.82254 -0.64457595
174.03317 70.393539 -0.52939004
183.51437 70.332436 -0.5533762
189.61012 70.118675 -0.61144125
182.89571 70.696526 -0.70894098
183.34241 70.705376 -0.55736095
188.85208 70.870247 -0.65941167
191.26804 70.735214 -0.77137446
191.95004 70.729355 -0.69191754
194.15021 70.611572 -0.75120389
196.63611 70.8013 -0.79893112
199.12601 70.606491 -0.67990053
200.98796 70.628517 -0.72939235
201.00404 70.552986 -0.72854203
202.28687 70.696098 -0.79424149
173.46558 71.234779 -0.54315948
178.25554 71.286217 -0.54381943
194.92331 71.278709 -0.74050522
197.2585 71.161461 -0.72082448
198.33304 71.442436 -0.80728048
199.57425 71.261368 -0.79879177
203.15321 71.483459 -0.73594928
173.74353 71.537575 -0.66441607
184.63742 71.650726 -0.66068429
190.89206 71.807259 -0.81656218
192.10017 71.509369 -0.6949743
194.16748 71.817734 -0.76060629
196.80577 71.866302 -0.65807998
198.48953 71.919708 -0.71949416
198.63153 71.93924 -0.74948627
202.98296 71.513718 -0.7068212
203.16142 71.532639 -0.73980367
210.67836 71.791588 -0.910734
162.49501 72.3647 -0.63438869
184.86266 72.020668 -0.67770892
188.59276 72.392853 -0.66930139
190.99695 72.018059 -0.72905308
191.27368 72.33725 -0.7219916
191.68849 72.245728 -0.66757178
194.28952 72.042618 -0.72285783
198.40007 72.055878 -0.89924634
200.94592 72.137543 -0.6464901
183.98029 72.992348 -0.74027735
191.51608 72.642509 -0.72785121
193.92944 72.660843 -0.68666947
194.15086 72.612419 -0.60634673
203.55771 72.538979 -0.79857141
157.9333 73.081589 -0.64165431
188.9772 73.099091 -0.55696642
189.05089 73.386009 -0.57436699
190.34482 73.249611 -0.71391344
190.6194 73.11721 -0.67101765
191.22537 73.483246 -0.65252477
195.9559 73.47258 -0.67311907
196.21059 73.060669 -0.79145789
197.7458 73.321739 -0.76642913
198.68428 73.315895 -0.74443907
205.52638 73.407593 -0.7553978
167.11696 73.637909 -0.56835413
179.30687 73.577538 -0.7455377
193.58025 73.657059 -0.82369792
196.38651 73.891556 -0.75006533
197.20999 73.881065 -0.65357083
197.67592 73.674294 -0.64166099
204.9892 73.790596 -0.73303056
205.45845 73.627167 -0.7949093
213.1788 73.870674 -0.58599174
194.75575 74.36058 -0.7182709
198.61671 74.127991 -0.64088756
199.42245 74.492065 -0.79014456
202.88754 74.128716 -0.81275266
213.00925 74.19619 -0.80792749
213.53755 74.353607 -0.64345729
162.07523 74.64592 -0.71135247
166.19771 74.570419 -0.83251929
187.43079 74.631943 -0.68388259
192.07939 74.811798 -0.72076303
195.18704 74.866592 -0.7421211
197.24631 74.987808 -0.75905776
197.56721 74.762611 -0.77880603
200.16936 74.715736 -0.65100747
201.66733 74.605438 -0.78718513
202.16736 74.591766 -0.73991036
206.18767 74.959763 -0.75294268
207.07069 74.894791 -0.75228143
186.24246 75.254776 -0.57519627
191.5883 75.367432 -0.57855439
192.41968 75.441467 -0.75628984
192.82755 75.384857 -0.73928303
193.90187 75.039368 -0.7037704
196.64688 75.040146 -0.62149441
197.20804 75.155342 -0.63942009
199.33925 75.20961 -0.65081388
199.91898 75.21991 -0.74700832
200.01448 75.042992 -0.75280321
201.48988 75.253876 -0.68721515
201.50208 75.254753 -0.65587509
204.18649 75.371025 -0.79307711
206.15976 75.347397 -0.72187173
207.41235 75.028496 -0.65379167
209.4025 75.429092 -0.97847635
179.89944 75.938461 -0.64898324
182.76117 75.960541 -0.69197619
186.6597 75.765945 -0.62902957
187.86679 75.781555 -0.75947773
188.26503 75.911964 -0.79737252
189.84827 75.869713 -0.7816999
190.12408 75.509644 -0.66312152
192.54507 75.75119 -0.74403548
195.28915 75.817596 -0.74192834
204.10577 75.533669 -0.85252583
209.76227 75.518127 -0.74774122
154.21179 76.313232 -0.55219364
157.67505 76.051109 -0.52791619
186.75494 76.481094 -0.70632195
188.31044 76.07991 -0.57791406
188.63614 76.181061 -0.81991041
190.89946 76.177994 -0.80395854
191.09697 76.149269 -0.72963917
195.19107 76.03627 -0.77966046
196.0625 76.288864 -0.80282629
203.45624 76.472084 -0.71727145
203.74667 76.223633 -0.71694553
205.25905 76.350639 -0.79508424
207.21063 76.112213 -0.74057144
207.53482 76.198212 -0.81898254
171.41151 76.527679 -0.73961616
184.38467 76.910751 -0.79060155
186.84976 76.544205 -0.6191113
191.10161 76.512283 -0.7953496
198.35913 76.676414 -0.63264126
200.84335 76.767181 -0.82655025
203.07014 76.759033 -0.7515834
203.65656 76.822906 -0.64942259
213.2654 76.797829 -0.7406863
173.8558 77.13504 -0.75089526
189.27293 77.372284 -0.75602782
193.81137 77.424255 -0.76098537
194.4202 77.365814 -0.92419362
197.6046 77.27211 -0.77383244
203.22632 77.345848 -0.88284791
204.62561 77.122421 -0.83490485
155.86034 77.934975 -0.78708953
173.93909 77.714752 -0.69843626
178.48619 77.92408 -0.63018954
178.71031 77.949509 -0.61403513
181.39816 77.550644 -0.86957872
183.21146 77.879593 -0.7162956
183.60629 77.864365 -0.82903862
187.37378 77.786171 -0.72695011
189.19983 77.540535 -0.71289355
189.51468 77.839424 -0.70014775
193.19174 77.820854 -0.58116555
193.8167 77.724686 -0.7801733
196.1803 77.807556 -0.72303736
202.87714 77.717712 -0.73334676
203.37798 77.640396 -0.79676354
210.49553 77.689827 -0.79096818
210.52156 77.676933 -0.85348243
170.88791 78.36348 -0.69458985
173.17265 78.113365 -0.61976576
178.28949 78.014145 -0.65498817
183.68196 78.007385 -0.61427516
186.86763 78.223679 -0.67603087
189.87823 78.169167 -0.74048394
192.19048 78.249855 -0.71777153
204.42389 78.11496 -0.77349532
206.54144 78.459534 -0.794873
213.35374 78.233894 -0.80534679
171.57858 78.588242 -0.62993008
172.71274 78.852699 -0.56609482
179.22372 78.820702 -0.57529128
179.96432 78.636345 -0.6731258
181.90639 78.788307 -0.6630379
182.02321 78.804985 -0.65507841
189.70935 78.600174 -0.88790309
190.54301 78.657928 -0.69733036
192.42563 78.726074 -0.70588118
192.91534 78.832062 -0.78116208
203.28723 78.96196 -0.80445278
203.65375 78.968048 -0.83629692
206.82948 78.806747 -0.77045506
207.57509 78.545624 -0.68735385
210.21141 78.516251 -0.97265261
178.20465 79.302818 -0.85471666
180.90649 79.276047 -0.60590917
181.27179 79.173012 -0.73390269
188.91795 79.457207 -0.78840607
189.09576 79.082779 -0.83673429
190.12297 79.151878 -0.60555661
190.64311 79.193275 -0.73672271
193.22003 79.476479 -0.70658636
199.91426 79.398491 -0.59596789
203.6507 79.017807 -0.85703397
204.38602 79.380463 -0.78759146
206.73325 79.088036 -0.96511298
213.54474 79.119614 -0.64417571
173.28943 79.912949 -0.62098837
179.47621 79.911163 -0.69822317
179.51186 79.88765 -0.62673521
181.56776 79.920914 -0.69309717
184.85136 79.773041 -0.68879396
191.31712 79.813202 -0.64090931
193.19022 79.552567 -0.72574139
194.81253 79.933792 -0.76889008
195.1427 79.758392 -0.7281146
203.13893 79.771164 -0.50767642
158.19138 80.319778 -0.79546988
160.59946 80.432655 -0.56645501
193.39095 80.286186 -0.83127952
158.35977 80.70285 -0.57320213
161.84665 80.956322 -0.69469005
180.05664 80.878174 -0.65067697
182.57077 80.977684 -0.71776903
183.1879 80.594971 -0.6535182
183.64775 80.745918 -0.84990746
197.88394 80.739014 -0.73777539
198.61362 80.732925 -0.7962513
200.31563 80.782051 -0.7839644
201.1907 80.914795 -0.88125706
203.37408 80.571716 -0.74826533
213.32463 80.80336 -0.61704075
180.78795 81.274101 -0.63108581
181.06949 81.248161 -0.59245777
182.73215 81.219986 -0.63628596
183.53232 81.331451 -0.60286975
189.09328 81.020103 -0.76430041
190.8371 81.46447 -0.70680773
197.71196 81.071938 -0.80758852
199.93187 81.497398 -0.68692237
200.19467 81.381203 -0.69001877
212.9416 81.036263 -0.65970099
213.30518 81.255241 -0.57086176
213.66559 81.210693 -0.76578701
163.39102 81.754135 -0.66391593
180.69234 81.505333 -0.76777059
181.2686 81.537308 -0.67902398
181.75357 81.813683 -0.56090504
183.11729 81.878738 -0.57422709
188.56056 81.663223 -0.73234385
190.64792 81.726845 -0.71799248
197.07256 81.544846 -0.66238821
200.03702 81.543869 -0.65655518
204.30612 81.977814 -0.8811667
213.14175 81.893074 -0.65839314
157.11621 82.008965 -0.52405983
163.77068 82.300018 -0.69395381
183.22342 82.097992 -0.51784205
186.23885 82.189056 -0.7213521
186.7999 82.308266 -0.61648512
198.22833 82.138321 -0.69044578
198.57031 82.064842 -0.60756904
209.37018 82.163597 -0.71819729
209.82591 82.22773 -0.72796863
210.73955 82.17408 -0.5190379
176.77461 82.861374 -0.67370003
200.35121 82.598427 -0.81401157
192.61296 83.031029 -0.7995193
186.56282 83.934273 -0.71999699
193.12027 83.79303 -0.84354961
196.39702 83.628876 -0.96306765
199.09442 83.525108 -0.72691011
203.31776 83.723557 -0.86957061
205.74646 83.937935 -0.7867111
212.47914 83.954536 -0.80228764
212.78084 83.641525 -0.63320929
184.47484 84.314423 -0.80878007
184.58052 84.24366 -0.76633018
186.69455 84.096062 -0.62846661
191.83514 84.298965 -0.64470327
200.63281 84.378105 -0.68228883
201.72198 84.301865 -0.64124519
212.25882 84.253342 -0.82118392
167.25616 84.79882 -0.69647634
183.17644 84.751846 -0.79653358
183.85345 84.874451 -0.69360155
184.10507 84.784042 -0.70594883
184.5038 84.797256 -0.68555951
185.07771 84.810486 -0.65633494
194.86301 84.774826 -0.80851185
202.4572 84.887688 -0.7646423
202.72131 84.765587 -0.75049877
212.4577 84.985992 -0.72881812
212.68526 84.748344 -0.7152583
184.90523 85.315254 -0.79471636
185.13821 85.206268 -0.79831332
187.17828 85.287384 -0.78505313
195.05278 85.054932 -0.85309333
202.45787 85.047127 -0.56524563
212.40955 85.013535 -0.69630146
182.62863 85.847725 -0.7767477
184.10846 85.862221 -0.66237217
185.25761 85.679062 -0.7262243
185.82249 85.921875 -0.70325571
190.49635 85.5998 -0.6985572
190.55727 85.581139 -0.72075588
191.29781 85.64064 -0.78433883
198.69556 85.947189 -0.63713366
209.25862 85.716431 -0.70021594
178.7627 86.203369 -0.73067522
183.64888 86.142288 -0.66506016
184.46564 86.046844 -0.57929176
184.86087 86.380783 -0.59610564
185.2 86.256966 -0.87990475
191.77643 86.116089 -0.70588684
194.06624 86.192673 -0.78352666
172.40651 86.78186 -0.56254983
173.64796 86.937508 -0.68166584
184.25919 86.568199 -0.5431475
186.39954 86.989326 -0.78881979
187.32986 86.992783 -0.53209096
189.22458 86.551407 -0.79093289
206.4875 86.579964 -0.73395896
206.71051 86.607147 -0.81658792
173.49785 87.04052 -0.94661498
173.60114 87.089645 -0.8297298
174.33296 87.294373 -0.571226
183.88876 87.199356 -0.59802997
185.1438 87.301407 -0.61692005
186.40355 87.162613 -0.74098557
186.9631 87.039551 -0.82328898
187.43427 87.006302 -0.71561235
200.22766 87.000587 -0.96330255
204.58025 87.191437 -0.81039762
168.97574 87.807877 -0.71601528
171.85477 87.816933 -0.74721295
172.99062 87.909584 -0.79399014
173.00807 87.765564 -0.85115337
173.71317 87.812737 -0.61458695
183.99794 87.737633 -0.65105969
184.10814 87.711937 -0.53782719
185.17561 87.640282 -0.59344131
185.75478 87.663414 -0.59762603
189.44012 87.823242 -0.73367339
210.80176 87.637833 -0.72905385
184.28198 88.191002 -0.68940163
184.69196 88.207497 -0.6907419
185.72623 88.29982 -0.70028651
204.49037 88.023865 -0.82237262
164.96111 88.761452 -0.65900707
173.48587 88.825119 -0.58003968
173.51422 88.805481 -0.65852958
175.74829 88.986336 -0.78655362
179.5786 88.706085 -0.56156695
180.19243 88.661011 -0.77760863
180.58365 88.543091 -0.68854421
184.97235 88.832451 -0.79091525
185.39444 88.716331 -0.64881867
195.8385 88.762939 -0.67685091
175.68961 89.276703 -0.81140244
176.47737 89.391586 -0.79933631
184.29965 89.29612 -0.72069889
184.70897 89.473854 -0.50843555
185.3277 89.075958 -0.6897462
187.73808 89.34552 -0.76433057
188.05644 89.093285 -0.62455505
192.17334 89.185471 -0.77003509
201.41057 89.36274 -0.74756604
201.52835 89.219765 -0.76366532
176.29308 89.532242 -0.76755464
183.90532 89.831772 -0.87016243
184.06673 89.886436 -0.65885669
184.66095 89.701286 -0.72662151
185.24875 89.595627 -0.74138445
195.58597 89.97612 -0.71469402
206.464 89.797401 -0.56247872
212.06555 89.705292 -0.56630331
182.4532 90.117973 -0.51597548
184.17694 90.072319 -0.64541239
184.69781 90.034492 -0.74036193
185.45312 90.489548 -0.60090142
195.59364 90.116936 -0.77632993
196.71916 90.057495 -0.75809091
206.10353 90.145653 -0.54307175
215.99905 90.337738 -0.54460645
216.07816 90.303307 -0.67463839
184.80367 90.79641 -0.62722421
185.0995 90.700218 -0.57028794
187.15254 90.781204 -0.56192607
194.88783 90.876083 -0.70405775
201.16801 90.62619 -0.58646679
215.49879 90.757187 -0.52449721
178.2334 91.389175 -0.7555688
178.51233 91.495331 -0.72225446
185.08653 91.43029 -0.60960674
208.34392 91.45755 -0.73730618
211.74976 91.458817 -0.59315133
184.09363 91.564339 -0.67085803
211.79254 91.785484 -0.75557566
171.32173 92.208229 -0.81639349
176.66817 92.120735 -0.6532287
186.91859 92.226501 -0.64472163
187.14096 92.453484 -0.73130804
187.72849 92.00473 -0.61884481
188.03589 92.325836 -0.64744914
205.14627 92.042343 -0.88967508
176.3064 92.765266 -0.55169213
176.61584 92.72435 -0.67240608
186.77663 92.977119 -0.66593158
187.98964 92.610992 -0.68023235
189.90598 92.521751 -0.50899172
193.48744 92.907005 -0.66268247
209.56403 92.684982 -0.67734706
171.20532 93.048859 -0.60937738
172.32463 93.41436 -0.65660059
187.02347 93.280411 -0.61970949
188.8994 93.018616 -0.83470207
193.27888 93.395363 -0.70357233
211.77119 93.153015 -0.74395227
215.81097 93.156052 -0.55876875
173.14671 93.971573 -0.60585797
190.18182 93.977417 -0.65865386
193.0732 93.501831 -0.63298428
196.97841 93.747917 -0.81042784
212.1467 93.917358 -0.5452491
165.62677 94.025032 -0.60677594
173.14767 94.046707 -0.65521169
173.73923 94.243752 -0.6930961
188.8614 94.033142 -0.5384627
189.91415 94.103249 -0.56999201
212.16833 94.112251 -0.69135612
173.47299 94.928101 -0.58053726
175.35626 94.780907 -0.74413276
188.87012 94.875076 -0.91053629
173.42073 95.02269 -0.64299637
173.9408 95.277542 -0.64925683
178.30721 95.339424 -0.79254007
188.8604 95.007454 -0.63910049
189.37955 95.129669 -0.63261348
191.78937 95.242889 -0.522259
194.70584 95.051704 -0.64388829
206.78198 95.450516 -0.79677087
178.45747 95.502274 -0.80236834
178.8378 95.736252 -0.69885033
185.89703 95.875443 -0.57121497
187.11966 95.560654 -0.55105567
200.7365 95.80513 -0.86527359
192.31432 96.261169 -0.57356638
193.74229 96.215927 -0.73260361
194.11389 96.050125 -0.50842834
182.20758 96.623764 -0.67023122
190.29033 96.846291 -0.57003355
179.11404 97.403595 -0.70505565
180.31458 97.07016 -0.82265556
183.24368 97.293175 -0.79106975
183.60922 97.156738 -0.71116054
192.61517 97.453621 -0.55707884
171.48883 97.833748 -0.66618323
171.50568 97.784286 -0.72005683
172.45546 97.618027 -0.86121112
172.71945 97.798721 -0.79991961
177.30643 97.996918 -0.69826889
177.61118 97.857117 -0.74382347
180.23976 97.899506 -0.6028893
184.56436 97.529884 -0.65553021
177.32103 98.074043 -0.6644001
178.18378 98.235718 -0.73425609
180.24171 98.137817 -0.6638279
181.95609 98.05439 -0.71048802
182.33876 98.010941 -0.60980344
206.10225 98.186386 -0.68256766
179.22041 98.75943 -0.66371018
179.74023 98.896019 -0.66833997
192.39398 98.857132 -0.52830708
202.464 98.548424 -0.70031369
206.31477 98.722191 -0.68330228
209.64568 98.747864 -0.80622655
168.13977 99.38501 -0.67775249
172.76614 99.041962 -0.65914416
179.7682 99.237671 -0.59569669
181.15132 99.253159 -0.77263105
201.024 99.484001 -0.61694765
203.72411 99.401306 -0.62754059
204.01105 99.366486 -0.57174045
166.68443 99.50705 -0.74231517
177.28195 99.780777 -0.69498396
180.46941 99.698563 -0.69603854
202.38927 99.865486 -0.64553326
203.30048 99.662651 -0.53993988
214.82349 99.957886 -0.88318455
180.91992 100.23149 -0.71147227
190.97917 100.30537 -0.59700519
204.98177 100.06862 -0.66298604
179.82716 100.7642 -0.54659706
191.98613 100.8085 -0.77451664
198.36086 100.7673 -0.67052358
198.70145 100.55697 -0.64110684
172.79701 101.27737 -0.53986406
175.41379 101.39775 -0.61855066
178.16486 101.03085 -0.56245673
173.24051 101.6469 -0.58866
191.69806 101.58144 -0.7996909
211.54791 101.60974 -0.55164313
163.94316 102.23495 -0.54177272
164.37271 102.17657 -0.93882352
164.67499 102.38898 -0.67775971
165.88504 102.1941 -0.70376951
172.0883 102.41722 -0.62979674
174.0675 102.15821 -0.59238058
178.71469 102.10262 -0.67329949
164.7373 102.94577 -0.63382852
170.57784 102.97658 -0.55537075
161.10747 103.12095 -0.63824725
164.87526 103.00546 -0.65069544
180.99724 103.38398 -0.71635669
181.10176 103.43618 -0.60491401
185.80884 103.40842 -0.55367172
210.9612 103.35028 -0.78267735
171.60118 103.83847 -0.86230338
173.55037 103.62943 -0.6467343
175.77118 103.82178 -0.71459538
184.21576 103.76271 -0.59074277
196.38431 103.70174 -0.63000906
196.61377 103.52007 -0.78719544
172.0724 104.24876 -0.66641563
187.27835 104.33404 -0.59280968
195.30708 104.33926 -0.57971978
175.30603 104.74168 -0.59881294
181.98798 104.62082 -0.54269302
182.26477 104.9232 -0.55927306
186.54358 104.60522 -0.65024275
171.34779 105.36819 -0.75497073
171.61182 105.47446 -0.72847641
197.8062 105.28929 -0.58972174
173.08481 105.62698 -0.56703496
173.93846 105.76962 -0.53910726
174.03085 105.83772 -0.52127624
180.88834 105.62316 -0.54313874
181.21696 105.68353 -0.67225134
181.60207 105.51664 -0.790757
186.92773 105.90845 -0.61223108
199.26054 105.54504 -0.67512286
184.73128 106.49415 -0.81643516
193.75438 106.01248 -0.75093687
184.72366 106.53339 -0.81794566
196.39716 107.47717 -0.6721096
199.16251 107.3644 -0.56041479
185.98883 107.91511 -0.79889536
142.46095 108.82484 -0.59163946
146.52852 109.18779 -0.62510091
198.42519 109.76653 -0.68333292
198.7215 109.97746 -0.56739843
199.9341 109.66972 -0.55887443
201.08095 110.02163 -0.609478
200.49867 110.59518 -0.56343549
200.63049 110.61616 -0.77295876
205.76743 111.1212 -0.58184898
216.07082 111.71131 -0.58311725
163.49513 112.496 -0.63048726
156.6319 112.83983 -0.55890685
164.17514 112.96416 -0.91342831
167.84822 113.26286 -0.62095654
169.57828 113.08456 -0.8490743
172.15874 114.38869 -0.57267785
173.16446 114.00493 -0.66312957
149.07895 114.58176 -0.69571579
174.09625 114.78058 -0.75981057
174.5166 114.61492 -0.80860734
175.25476 114.75326 -0.83400792
175.32982 115.01639 -0.73609078
176.88223 115.1323 -0.52164465
179.61823 115.28564 -0.6175977
179.86317 115.66293 -0.69997627
180.0072 115.80926 -0.52391273
179.23091 116.88574 -0.67663211
185.65079 116.94967 -0.71016616
175.32658 117.10254 -0.66457373
185.68008 117.14177 -0.60293102
172.58812 118.39693 -0.67950356
159.39436 118.68724 -0.54362208
170.08026 124.78127 -0.68824178
201.73814 -29.230492 -0.33703345
198.23729 -26.081381 -0.34116253
200.4763 -26.459303 -0.14788954
198.59804 -25.905298 -0.3727209
169.79868 -25.114954 -0.17673625
197.77647 -25.199768 -0.47543415
198.25949 -25.136942 -0.36186922
196.59615 -24.539106 -0.0010579705
196.75919 -24.12299 -0.24811947
164.87404 -23.125666 -0.058413584
165.25049 -23.070467 -0.15792531
165.83719 -23.129187 -0.19198702
166.16084 -23.203451 -0.044887703
164.12875 -22.956713 -0.027948139
166.0376 -22.914133 -0.073889285
194.74377 -22.720459 -0.2350256
193.09456 -21.565598 -0.15797901
157.83121 -21.059114 -0.17979863
192.94917 -21.358562 -0.0089340117
160.50671 -20.629374 -0.26027426
161.39534 -20.55946 -0.27166232
161.73093 -20.536095 -0.019635171
199.51849 -13.481412 -0.012790289
141.29956 20.948845 -0.043522514
141.46237 21.720469 -0.022969354
140.91965 22.436052 -0.018113725
141.3383 22.442282 -0.10567293
104.12878 22.655712 -0.28808945
154.6297 22.880594 -0.25982282
148.99544 23.756241 -0.30399361
151.79755 23.633383 -0.038020786
156.9933 23.992109 -0.0087977089
171.6759 23.876366 -0.2032233
136.23428 24.474258 -0.1260166
136.53053 24.481203 -0.28443265
148.07545 24.068319 -0.24598065
160.82387 24.090689 -0.2579132
132.44211 24.761751 -0.16693263
136.2016 24.667238 -0.10481022
136.55421 24.520014 -0.34927928
154.66132 24.622538 -0.11860082
155.00304 24.922188 -0.012991978
158.26372 24.579124 -0.3212353
160.65598 24.9478 -0.32162708
132.30997 25.06879 -0.1718827
155.64139 25.361298 -0.07979995
160.29916 25.427933 -0.21959478
160.63412 25.196968 -0.2435071
162.51073 25.22006 -0.43301263
171.86803 25.419712 -0.03913844
140.13998 25.813011 -0.066863902
151.62289 25.758163 -0.25617054
155.24976 25.739594 -0.29938626
157.30336 25.527468 -0.14644356
158.06586 25.808722 -0.45732498
159.99725 25.700935 -0.41477969
161.41539 25.905415 -0.3467859
161.65828 25.88835 -0.37046528
165.30292 25.846056 -0.019323887
170.59543 25.863039 -0.17974389
171.97673 25.620872 -0.045888163
172.10966 25.701134 -0.065042444
136.87531 26.099825 -0.11269329
139.89998 26.358961 -0.14198031
148.57863 26.242483 -0.21315821
153.51085 26.19342 -0.36964834
156.75743 26.454645 -0.30518886
162.42543 26.193783 -0.44510993
166.80595 26.302429 -0.32131484
169.283 26.113884 -0.17709343
169.6869 26.03574 -0.43335965
170.37462 26.327417 -0.24392097
170.57672 26.207512 -0.25698984
172.08537 26.35536 -0.38504004
151.97664 26.832964 -0.11494728
152.40067 26.636379 -0.27000928
153.32454 26.810806 -0.28623319
153.61655 26.524632 -0.40749782
156.61018 26.583609 -0.42752025
159.69472 26.693571 -0.31655097
152.21925 27.209076 -0.39724725
155.6949 27.371984 -0.40301409
147.3624 27.560238 -0.44703987
148.01974 27.612638 -0.14675313
153.93968 27.846071 -0.35084876
154.07851 27.978897 -0.18934438
152.13898 28.339565 -0.17874163
154.58571 28.274511 -0.22455996
158.3405 28.440414 -0.47853673
187.47339 28.230236 -0.066047646
187.58876 28.437815 -0.10115011
188.11971 28.434757 -0.054467998
135.34499 28.535458 -0.1785979
148.39386 28.588524 -0.38307464
149.14204 28.899572 -0.30513284
186.04788 28.564789 -0.020876963
187.47435 28.74822 -0.21322143
187.58099 28.88509 -0.21817717
188.23474 28.718472 -0.41988158
149.0257 29.296917 -0.24837631
154.25024 29.127623 -0.48638076
184.64287 29.044613 -0.40222746
187.45905 29.131355 -0.39514077
187.54359 29.055445 -0.34559119
140.35051 30.128782 -0.30913377
149.28897 30.411728 -0.41482669
162.1326 30.414309 -0.4243055
149.3893 30.752028 -0.14656727
154.58844 30.611145 -0.41515571
141.44345 31.031862 -0.39196843
152.20703 31.1493 -0.40703368
154.20688 31.295454 -0.41579029
146.16412 31.851234 -0.38141251
148.64661 32.904579 -0.39984989
152.0761 32.624443 -0.42839608
148.3914 33.440231 -0.30167931
140.06578 33.721275 -0.30255687
147.12506 33.933479 -0.29954815
147.53105 33.762962 -0.31055415
149.55182 33.763023 -0.39990368
152.83305 33.583279 -0.39902717
140.10794 34.04591 -0.25243264
169.51245 34.287743 -0.40880927
149.62456 35.362366 -0.43231821
164.36319 35.161728 -0.33774912
170.80495 35.438046 -0.33068275
135.3503 35.805061 -0.28595757
149.36633 35.752884 -0.43898678
149.59607 35.866478 -0.37418124
139.12775 36.270615 -0.34520149
155.95328 36.735176 -0.49711186
174.8974 36.577297 -0.47447607
175.12315 36.557148 -0.37732914
176.05569 36.914894 -0.43222666
141.65125 37.793217 -0.28095824
150.87968 37.627625 -0.39528567
151.88629 37.519947 -0.41214049
157.38994 37.691193 -0.42999452
159.17525 37.509148 -0.39000943
154.49391 38.259544 -0.34323856
147.44022 38.985672 -0.36877945
148.83774 38.539738 -0.40181527
141.06895 39.411514 -0.21800575
143.28397 39.241451 -0.29041171
147.44035 39.029297 -0.37757021
147.57458 39.260044 -0.43386781
149.63289 39.237137 -0.37935343
152.47137 39.254303 -0.44756132
156.05379 39.036057 -0.25592798
174.30258 39.320229 -0.42589483
143.62782 39.566795 -0.36837426
147.53946 39.79689 -0.29375204
152.66719 39.719921 -0.1563753
157.87148 39.726021 -0.31921175
169.52837 39.898174 -0.45841223
171.90071 39.849251 -0.34850004
145.24342 40.007729 -0.24495365
146.0672 40.26162 -0.29849887
149.65904 40.174831 -0.35182792
152.66267 40.319744 -0.37741503
156.09784 40.108078 -0.33631438
156.97672 40.320801 -0.39234436
168.78592 40.469315 -0.48202899
169.76945 40.038811 -0.4212513
145.71941 40.784706 -0.24779601
152.93039 40.815292 -0.30861771
156.97267 40.609547 -0.47098911
159.2943 40.801384 -0.48875517
160.10751 40.723068 -0.45732775
171.13361 40.524315 -0.44362399
135.18248 41.366539 -0.21972814
135.698 41.196529 -0.11818826
146.51314 41.263287 -0.35561839
147.457 41.070293 -0.16278182
158.9317 41.262608 -0.48986554
159.42519 41.310936 -0.48156857
159.5498 41.033657 -0.49205783
168.61781 41.129955 -0.48556527
176.92995 41.482586 -0.40384716
135.16742 41.530403 -0.1991936
151.76225 41.898754 -0.33809879
154.38153 41.772995 -0.19766721
157.93652 41.515095 -0.44501776
158.3465 41.70504 -0.4031243
158.68979 41.84148 -0.38992059
159.34215 41.713486 -0.47807765
159.60017 41.823269 -0.47662875
142.00554 42.37252 -0.45584759
142.58972 42.409519 -0.29435873
144.33679 42.211624 -0.32114136
148.79591 42.354584 -0.38395986
151.7121 42.176716 -0.28228676
155.10127 42.171497 -0.37225127
157.47054 42.311638 -0.46098849
166.23163 42.246323 -0.49757722
168.71011 42.268505 -0.46818703
153.07951 42.909615 -0.40178764
154.98955 42.550381 -0.36132377
155.40504 42.688324 -0.35526046
156.11742 42.757763 -0.42312649
156.659 42.917618 -0.43650952
158.785 42.584274 -0.49320588
159.66165 42.668861 -0.47832623
165.97316 42.75053 -0.42997932
168.70282 42.703732 -0.48834667
137.57523 43.383621 -0.29001904
142.7874 43.046246 -0.29479757
146.63895 43.064346 -0.23878412
149.09467 43.227497 -0.28262651
152.84103 43.356823 -0.48880115
156.97212 43.402939 -0.41307423
157.33865 43.31768 -0.41059566
168.36186 43.232868 -0.49567628
171.38226 43.130543 -0.4473564
171.84711 43.22303 -0.38242316
135.40688 43.770832 -0.16958153
146.14581 43.840015 -0.39731312
148.90401 43.637016 -0.33410791
152.12527 43.924858 -0.33562097
153.36162 43.863113 -0.37963811
153.56633 43.751644 -0.32700551
156.8186 43.73959 -0.28834444
158.51787 43.689384 -0.40704551
168.02335 43.541317 -0.4998197
152.74567 44.098789 -0.41322845
153.17094 44.429241 -0.32672113
153.79996 44.287155 -0.43065721
156.63951 44.029606 -0.29687408
157.35092 44.054302 -0.42028579
171.42986 44.425743 -0.48328212
133.26144 44.803684 -0.15615472
137.89833 44.980522 -0.046296768
147.83649 44.703217 -0.42392528
153.21404 44.54982 -0.3185364
154.67206 44.770824 -0.21621522
161.7699 44.939186 -0.49106017
168.37744 44.737251 -0.43147758
169.19841 44.70359 -0.25681621
171.20186 44.954075 -0.48027956
154.05687 45.166306 -0.2751812
158.15509 45.352448 -0.42482638
169.45146 45.441933 -0.48423916
171.22371 45.101421 -0.47226804
140.87244 45.925064 -0.28908271
141.16093 45.721405 -0.32031217
142.85405 45.827652 -0.18247716
143.24376 45.968369 -0.30242437
154.79794 45.777184 -0.1955553
157.27251 45.630775 -0.3621816
159.36153 45.759876 -0.47469127
168.84192 45.643402 -0.36306742
170.31313 45.777386 -0.4602814
172.85519 45.805153 -0.46214762
139.49077 46.487053 -0.28159904
140.66624 46.135033 -0.31242299
144.87738 46.036335 -0.38078979
154.49438 46.106445 -0.23358501
154.59196 46.073956 -0.43822432
168.13452 46.33213 -0.3805519
169.90508 46.338181 -0.46264902
171.21938 46.084831 -0.48706102
189.02507 46.478832 -0.48548102
216.83354 46.327816 -0.37207472
133.93127 46.521442 -0.21650076
139.4976 46.547859 -0.26126063
143.20969 46.861282 -0.25874296
144.37117 46.509472 -0.28028435
148.44347 46.64344 -0.3018499
156.46304 46.884373 -0.44000876
156.52197 46.873589 -0.4368611
163.71269 46.76046 -0.46330842
168.89841 46.612267 -0.42673627
170.45334 46.745823 -0.45997363
170.73914 46.648613 -0.37356609
176.88797 46.836464 -0.39258704
140.18213 47.205078 -0.049381614
143.21716 47.111221 -0.25183386
143.84857 47.120987 -0.333004
144.34802 47.427505 -0.29681006
151.55353 47.09206 -0.40028909
158.35393 47.240002 -0.39280409
165.23976 47.156548 -0.41189578
169.39273 47.189709 -0.44214177
171.99004 47.433632 -0.45645061
172.16472 47.150024 -0.45192194
173.63516 47.299694 -0.44945583
179.16286 47.438591 -0.47430867
184.77046 47.430737 -0.4649339
190.59521 47.401947 -0.47440416
144.07921 47.539978 -0.22747734
144.99173 47.780602 -0.39371687
151.02422 47.793442 -0.28490168
158.89404 47.757656 -0.4330855
163.61485 47.720989 -0.42884988
165.83528 47.654148 -0.49066278
166.04916 47.862885 -0.422102
167.18175 47.677589 -0.40268952
168.58569 47.854641 -0.35818893
169.83997 47.942715 -0.47074077
171.85165 47.74572 -0.43249387
176.65378 47.811695 -0.48847789
228.54121 47.864323 -0.44027662
145.0636 48.087738 -0.34722751
152.64177 48.249218 -0.37419805
161.84077 48.147751 -0.42550749
162.02785 48.008129 -0.38020462
165.81708 48.453033 -0.47457233
168.09512 48.210037 -0.45783046
169.29799 48.171406 -0.45369163
170.96091 48.081024 -0.47518483
171.29939 48.454494 -0.39354062
171.50641 48.429161 -0.43472061
172.31421 48.125359 -0.44322458
173.31139 48.117577 -0.34475252
173.59183 48.112736 -0.45738679
174.34229 48.146587 -0.46451136
175.60986 48.386623 -0.44736481
176.73581 48.313778 -0.41386527
189.82188 48.375591 -0.44632968
150.62584 48.840729 -0.067022108
153.47064 48.687538 -0.37905729
158.10446 48.643227 -0.39384598
159.4267 48.569771 -0.40074474
162.05696 48.820614 -0.44647861
166.11804 48.586903 -0.49046516
166.94952 48.742104 -0.43506804
171.89847 48.788815 -0.44310278
172.94275 48.574677 -0.44514507
175.43066 48.798382 -0.48202285
183.1226 48.628422 -0.45205495
191.30815 48.71846 -0.44871569
148.9761 49.305557 -0.39008042
152.07333 49.434349 -0.3785857
158.8389 49.459663 -0.31680894
161.46863 49.067204 -0.42906305
163.09041 49.204422 -0.36804691
172.41133 49.298519 -0.46277103
173.90645 49.101837 -0.39552367
176.37488 49.106453 -0.42577803
148.9791 49.620739 -0.31454051
149.25969 49.702168 -0.24760053
151.64056 49.929813 -0.24888493
153.32611 49.619503 -0.41481185
156.85728 49.973892 -0.42461285
159.31392 49.817978 -0.43350077
164.22632 49.907505 -0.37788084
165.10109 49.670773 -0.43135381
166.39395 49.688255 -0.42371187
167.58035 49.801762 -0.46762389
168.80957 49.843876 -0.43825558
170.36433 49.937744 -0.47325829
170.75491 49.699043 -0.39914241
172.12117 49.606361 -0.44574451
173.62888 49.921272 -0.40932348
178.16185 49.629032 -0.48048881
187.23869 49.76276 -0.4626345
187.88496 49.88554 -0.47988272
189.10898 49.662983 -0.44524267
151.9364 50.16172 -0.2804442
152.03223 50.213593 -0.22217245
154.37787 50.024376 -0.33644569
165.27931 50.210804 -0.46924251
170.30757 50.172581 -0.41103864
171.36734 50.284866 -0.4943853
173.68092 50.345963 -0.44028661
178.74371 50.177525 -0.46583128
187.12018 50.005806 -0.47840431
189.08862 50.052898 -0.44273946
191.44516 50.455265 -0.42076671
140.98976 50.746037 -0.17037289
