# .PCD v0.7 - Point Cloud Data file format
VERSION 0.7
FIELDS x y z normal_x normal_y normal_z curvature
SIZE 4 4 4 4 4 4 4
TYPE F F F F F F F
COUNT 1 1 1 1 1 1 1
WIDTH 601
HEIGHT 1
VIEWPOINT 0 0 0 1 0 0 0
POINTS 601
DATA ascii
-17.749521 5.6107674 -0.83784884 -0.096068412 0.043610975 0.99441892 0.019829128
-17.19146 5.8966923 -0.82785469 0.038166862 -0.065192044 0.99714255 0.028519763
-16.807661 5.7535439 -0.93669385 0.092912167 -0.10483773 0.9901396 0.03617331
-16.262228 5.8746495 -0.94766581 -0.093070015 -0.04997661 0.99440449 0.037841551
-15.716188 5.6587677 -0.7827217 -0.16409899 0.063476585 0.98439944 0.033322059
-15.235939 5.7369847 -0.62743199 -0.163746 0.043960117 0.98552257 0.048576217
-14.805383 5.9087753 -0.62091047 -0.011188503 0.17206118 0.98502272 0.051324137
-14.243479 5.7339234 -0.74363446 0.18392065 0.16712783 0.96862864 0.050019968
-13.840865 5.7381206 -0.83275849 0.039222647 0.080360897 0.99599385 0.042977668
-13.10912 5.8287482 -0.68923831 -0.052392617 0.11971481 0.99142492 0.0715959
-12.73634 5.8090296 -0.76906627 0.22575302 -0.15149166 0.96233356 0.059660837
-12.293975 5.8719215 -0.95963144 0.1135152 -0.33517611 0.93529207 0.072445467
-11.731317 5.8386278 -0.95417494 -0.058481593 -0.15426706 0.98629689 0.055979941
-11.316758 5.744936 -0.85310853 -0.02989817 -0.17240185 0.98457283 0.050707091
-10.788347 5.627635 -0.82733637 0.0031505392 -0.17902042 0.98384029 0.019825488
-10.121718 5.7069645 -0.7617079 0.0089908112 -0.027697098 0.99957591 0.028618364
-9.6985674 5.8618598 -0.82934922 0.020415682 0.0068090679 0.99976838 0.026319036
-9.3362141 5.8613229 -0.81039715 -0.17749119 -0.083537959 0.98057038 0.02325592
-8.7688684 5.8123984 -0.7439661 -0.13267155 -0.11205127 0.98480594 0.07657934
-8.1302958 5.9846301 -0.66398901 0.24398929 -0.13242611 0.96069378 0.12531698
-6.4207821 5.5198669 -0.64996171 -0.082496122 -0.30918872 0.94741583 0.013805137
-5.6432619 5.8092008 -0.6436168 0.01470037 -0.10287649 0.99458551 0.0074996743
-5.2156239 5.7841616 -0.65268421 0.012271978 -0.036925916 0.99924266 0.0073603545
-4.2520962 5.5864453 -0.58206409 -0.010412867 -0.14766036 0.98898333 0.03569914
-3.2769706 5.7965937 -0.75456864 0.58880866 0.053639416 0.80649066 0.055284351
40.210594 5.8057194 -0.88081372 0.82856786 -0.035716102 0.55874825 0.017906856
41.293137 5.9329472 -0.94536167 0.10155065 0.087109387 0.99100929 0.0089999149
42.923168 5.8364906 -0.99922985 -0.032961302 0.040589489 0.99863207 0.0081266249
43.255638 5.6938667 -0.99386525 0.024752012 0.055476394 0.99815315 0.010155153
43.63166 5.5543365 -0.99416262 0.006387468 0.12878676 0.99165171 0.014347415
46.753937 5.8375678 -0.71124268 -0.080066055 0.13331185 0.98783469 0.15174404
47.073246 5.6476612 -0.93125379 0.33404592 -0.25806317 0.90654105 0.058575548
50.205692 5.9536095 -0.92637753 -0.099642999 -0.14915219 0.98378092 0.030821729
-36.631771 6.2252445 -0.82417798 0.94553083 0.30510435 -0.11350249 0.0472822
-31.772163 6.458076 -0.82895654 0.40024006 0.021341659 0.91616178 0.062904671
-31.31004 6.4390893 -0.96427572 0.11798453 0.14117923 0.98292834 0.05690486
-30.573816 6.3097305 -0.87325406 0.11224538 0.30781719 0.94480133 0.041744187
-29.72687 6.2261295 -1.0682565 0.082433924 0.19214034 0.97789913 0.087539881
-28.860918 6.2662125 -1.0164609 0.20111638 0.087334745 0.97566634 0.053445421
-27.747086 6.4761381 -1.0158879 -0.39883891 -0.30700085 0.86410534 0.03219315
-26.351345 6.4542027 -1.0582484 -0.086038649 -0.066214003 0.99408907 0.02939162
-24.651505 6.3668365 -0.96433556 -0.45300379 0.011478117 0.89143467 0.029068625
-24.184164 6.364285 -0.89278454 -0.057091862 -0.14945008 0.98711962 0.034135167
-23.990042 6.1494522 -0.94010395 0.001271144 -0.1909176 0.98160523 0.032163862
-23.194944 6.2486506 -0.99581552 -0.17519563 -0.12442005 0.97664022 0.047928832
-22.121431 6.2613835 -0.96368748 -0.10869201 0.028264647 0.99367356 0.021440489
-21.820303 6.1616611 -0.93811268 -0.084742457 -0.02170785 0.99616641 0.029045261
-21.360777 6.1193166 -0.91466051 -0.11218866 -0.0057011512 0.99367058 0.023023464
-20.836584 6.1211705 -0.87655175 0.032059222 -0.097357057 0.99473304 0.028684588
-20.175741 6.2919531 -0.88437343 0.061524436 -0.088422842 0.99418116 0.018824719
-19.741413 6.3835621 -0.91631234 0.054702848 -0.033548646 0.99793893 0.024529431
-19.336737 6.2481232 -0.94504821 0.024316799 0.080877967 0.99642736 0.021929733
-18.894154 6.2326159 -0.95204681 -0.13245708 -0.044987723 0.99016726 0.015035422
-17.785059 6.3096061 -0.87366146 -0.38096783 0.050969355 0.92318237 0.042114362
-17.126513 6.0301771 -0.82572114 0.026989141 -0.053030789 0.99822807 0.028519763
-16.783085 6.2335238 -0.83500636 0.089849032 0.0047337632 0.99594414 0.044134658
-16.288977 6.2335544 -0.88676298 -0.062712096 -0.15774198 0.98548704 0.03454775
-15.783352 6.192143 -0.75573641 -0.15638751 -0.031735118 0.98718584 0.035442684
-15.028589 6.4994531 -0.78716737 0.045608915 0.074616231 0.99616879 0.042811628
-14.713848 6.0363111 -0.67481977 0.061061494 0.13150249 0.98943347 0.041124925
-14.172002 6.16364 -0.77560872 0.094619893 0.13815673 0.9858802 0.02684745
-12.565229 6.0493283 -0.78951025 0.29940802 -0.28603628 0.91024065 0.064440794
-12.206179 6.1524134 -0.80406231 0.06163029 -0.33753842 0.93929201 0.050424337
-11.877741 6.1909609 -0.83951944 -0.027754219 -0.33444604 0.94200611 0.06771262
-11.057507 6.0393004 -0.69092095 -0.044735771 -0.21167038 0.97631675 0.029662034
-10.885911 6.289865 -0.5654946 0.21110328 -0.075648211 0.97453207 0.027729694
-10.325214 6.3010392 -0.77167445 0.08929076 0.041353986 0.99514675 0.03639216
-9.7368078 6.349411 -0.78345531 -0.12430512 -0.057239752 0.99059165 0.037974309
-9.2435141 6.3556476 -0.67500401 -0.20979783 -0.13020967 0.96903574 0.026287302
-8.8676405 6.2056608 -0.61519754 -0.11475127 -0.29617813 0.94821447 0.072043709
-8.1150112 6.4775243 -0.56180567 0.27992719 -0.02573351 0.95967627 0.030494399
-7.8735752 6.3129988 -0.83407575 0.77271044 -0.58875763 0.23724036 0.17402217
-6.8437243 6.1922669 -0.60719562 -0.50149965 -0.020145662 0.86492324 0.012206919
-6.358882 6.2682419 -0.59207517 -0.017564869 0.048603389 0.99866372 0.0063998941
-5.5952373 6.1555877 -0.56412178 0.044586819 -0.1444733 0.98850363 0.012110949
-5.2760606 6.1582713 -0.55952519 0.070665747 -0.17561679 0.98191911 0.01514665
-4.7689915 6.2821126 -0.63278335 0.035187468 -0.0085898889 0.99934381 0.0085778804
-4.0877571 6.1367106 -0.57733542 -0.053830016 -0.2474108 0.9674142 0.0040721386
-3.3137667 6.234221 -0.82352227 0.29246372 0.13997675 0.9459765 0.011302048
40.42218 6.2587781 -1.012678 -0.26288658 0.22698964 0.93774533 0.01042165
40.684925 6.1388769 -0.97162902 0.0035656751 0.089189582 0.99600828 0.0091722365
41.269485 6.3355069 -1.0025634 0.043052632 0.0073234118 0.99904597 0.0081666736
42.444115 6.438108 -1.0465066 -0.0097493278 -0.029697014 0.99951142 0.0068633659
42.876812 6.1419201 -1.0053382 -0.039912242 0.013255755 0.99911523 0.0095373597
43.189804 6.1968937 -1.0092093 0.067912064 0.03392075 0.99711448 0.011122823
47.727703 6.0833912 -1.152701 0.26436865 0.052222114 0.96300679 0.06946066
49.878193 6.3551049 -0.9868834 -0.21090786 -0.12212147 0.9698475 0.029692136
50.201393 6.1809049 -0.88299894 -0.27864954 -0.17829926 0.94369686 0.023067255
50.688522 6.0776696 -0.81628662 -0.052928805 -0.18987064 0.98038137 0.044956949
-31.84688 6.7867064 -0.77359229 0.43327063 -0.29149967 0.85282147 0.076253287
-31.327923 6.4943309 -0.97133011 0.13215949 0.15263186 0.97940665 0.05690486
-30.60993 6.8931155 -0.9918595 -0.26175699 0.33399406 0.90550053 0.04292557
-29.545732 6.4919009 -1.0480087 -0.19707359 0.080833964 0.9770506 0.059897751
-27.862494 6.7282624 -0.86970729 -0.62464559 -0.70461828 -0.33664668 0.043091763
-26.100595 6.604054 -1.0389308 -0.041093331 -0.17422822 0.9838475 0.028648561
-24.217085 6.6588459 -0.70383817 -0.12073084 -0.12466184 0.98482662 0.053460408
-23.714354 6.8973155 -0.84394336 -0.077434845 -0.17601986 0.98133624 0.041857239
-23.016237 6.8966947 -0.81060511 -0.012782774 -0.99287748 0.11845201 0.047962926
-22.987223 6.9147716 -0.68501759 0.071889199 -0.98189503 0.17525451 0.062247828
-22.079372 6.727344 -0.97786152 -0.026234677 0.05898153 0.99791431 0.027492369
-21.706575 6.8210936 -0.87796956 -0.26235276 0.058369279 0.9632051 0.020742981
-21.30895 6.5587626 -0.83693773 -0.11775525 -0.032352477 0.9925155 0.020924395
-20.736713 6.5830288 -0.78518665 0.075128444 -0.14379774 0.9867512 0.022680989
-20.304348 6.6994562 -0.80481648 -0.0071900631 -0.08174587 0.99662727 0.018413091
-19.675777 6.7938423 -0.89029884 0.057067662 -0.17307729 0.98325354 0.018381434
-19.272223 6.8295703 -0.95537239 0.0097101573 -0.21655428 0.97622228 0.031590775
-18.749743 6.6464853 -0.92584121 -0.092184179 0.031474214 0.99524444 0.014219188
-17.801443 6.6003776 -0.91804785 0.0028227563 0.0057903607 0.99997926 0.045329288
-17.357168 6.5911555 -0.91905504 -0.12148707 0.11678141 0.98569924 0.039146412
-16.791281 6.627533 -0.80981225 -0.076472774 0.012937997 0.9969877 0.040949803
-16.141155 6.8135118 -0.78092229 -0.071219288 0.0039619962 0.9974528 0.024952251
-15.79249 6.6211753 -0.74487466 -0.12490353 0.055708446 0.99060369 0.037017856
-15.105955 6.8241382 -0.7876941 0.053279784 0.087889127 0.99470437 0.028290484
-14.889982 6.6389995 -0.81237185 0.033721935 0.027428675 0.99905479 0.035747267
-14.270757 6.8824849 -0.80867583 -0.026955217 0.095284753 0.99508506 0.0086854547
-13.617466 6.9233084 -0.77669781 -0.084378928 -0.075266227 0.99358702 0.044759184
-13.380417 6.9099298 -0.72486246 -0.16803275 -0.010960264 0.98572046 0.05990326
-12.809606 6.6884604 -0.66154945 -0.026732258 -0.089693628 0.99561059 0.047736488
-12.045733 6.9721189 -0.80741113 0.13137144 0.037621208 0.99061912 0.043373324
-11.754777 6.845119 -0.80604553 0.18666974 0.0060311705 0.98240423 0.044493299
-10.901454 6.762249 -0.66979951 0.035852883 0.11712432 0.99246991 0.012054089
-10.069575 6.6072559 -0.81700838 0.0054748557 -0.044718694 0.99898463 0.025060279
-9.8009672 6.6882563 -0.7962206 -0.10700379 -0.080891229 0.99096256 0.032479912
-9.323225 6.6876006 -0.63269186 -0.16943854 -0.11817352 0.97843015 0.027706278
-8.7369776 6.7691007 -0.55540001 -0.0057089133 -0.010799883 0.99992537 0.031450391
-8.39081 6.6864581 -0.55086291 -0.0046147676 0.041051652 0.99914634 0.0256567
-7.0905495 6.8891053 -0.81291139 0.027710609 -0.011685636 0.99954766 0.049249355
-6.9645152 6.9696584 -0.79611677 0.054744616 -0.0027949372 0.99849647 0.045547251
-6.274272 6.7560911 -0.64085519 -0.1746224 0.032473322 0.98409986 0.021284122
-5.5708928 6.5029202 -0.55548495 -0.015068709 -0.041620035 0.99901986 0.01129327
-5.249032 6.6376624 -0.52522653 -0.0042493781 -0.069209605 0.9975931 0.0098979799
-4.8792672 6.5192862 -0.61714494 0.065221213 -0.057781372 0.99619651 0.0097259097
39.654633 6.9856229 -1.0027517 -0.49935383 0.5847401 0.63931584 0.02385539
40.43784 6.5957737 -1.0343885 -0.024416596 0.017412869 0.99955022 0.0069061276
40.64402 6.8257556 -1.0060098 -0.0075593176 -0.037625886 0.99926329 0.0061042476
41.800457 6.7986817 -1.0020616 0.030141911 -0.0031922588 0.99954051 0.0035894469
43.236835 6.8765831 -1.0559877 0.003249886 0.024746206 0.99968851 0.024683388
44.124615 6.810791 -0.89190084 -0.64001417 -0.71144027 0.29023191 0.059454381
48.914062 6.89889 -1.1018598 -0.36758196 -0.018932989 0.92979836 0.073865511
49.181057 6.6106443 -1.0352135 -0.22588535 -0.076051213 0.97118074 0.052194409
49.975071 6.789937 -0.95877683 -0.13744923 0.033676069 0.98993617 0.031644661
50.118221 6.8284888 -0.95514554 -0.08124283 0.071184792 0.99414903 0.025949292
50.749935 6.8802929 -0.82475615 -0.41877353 0.17680722 0.89071202 0.030101581
-32.813324 7.2308483 -0.91369987 0.94129002 0.18897191 -0.27975485 0
-31.590811 7.381722 -0.99884498 0.75291455 -0.35869998 0.55177355 0.038528137
-26.063772 7.2634835 -0.78512377 0.58123237 -0.80508125 0.11837687 0.053790301
-24.491537 7.2298298 -0.89891213 -0.45065346 0.089259334 0.88822532 0.010674697
-23.900318 7.4793978 -0.85171133 0.20125829 -0.036843304 0.97884506 0.10990457
-21.743479 7.2179012 -0.9492206 -0.12651804 -0.11542606 0.98522586 0.022296371
-20.346863 7.3136816 -0.81307852 -0.16655357 -0.03557333 0.98539048 0.020888241
-19.773476 7.0669665 -0.79629087 0.011255356 -0.2292258 0.97330821 0.023307677
-19.335909 7.1102877 -0.85378146 0.2352587 -0.37764412 0.89556587 0.026176859
-18.441257 7.4089761 -0.80758649 0.10126506 -0.06051169 0.99301749 0.032635327
-17.678371 7.1377225 -0.90847307 0.15156044 0.014204039 0.98834592 0.044484053
-17.162306 7.2607026 -0.95859337 -0.013522398 0.0039808643 0.99990064 0.050618976
-16.809114 7.2899766 -0.85129416 -0.058249511 0.083331324 0.99481803 0.034063991
-16.179003 7.1129146 -0.83135593 -0.083568066 0.13185687 0.98773992 0.019356212
-15.660163 7.3898797 -0.79491979 -0.089716375 0.12826683 0.98767334 0.023164129
-15.230418 7.1291504 -0.74917531 0.018978966 0.0049214815 0.99980778 0.017929845
-14.87742 7.0683146 -0.74777502 0.027566755 -0.093670115 0.99522156 0.0093833087
-14.091517 7.136344 -0.82400256 -0.10897874 0.040867496 0.99320364 0.021494254
-13.633445 7.0762763 -0.75707662 -0.12532395 -0.37392491 0.9189527 0.046117205
-13.289931 7.2124023 -0.6631031 -0.089416362 -0.073617101 0.99326998 0.069084063
-12.614148 7.4334755 -0.71040219 0.13652813 0.12877908 0.98223013 0.056412943
-12.100009 7.2227936 -0.80245841 0.11174098 0.080993205 0.99043125 0.056546986
-11.761341 7.2158389 -0.8574307 0.011619154 0.23271768 0.97247493 0.021900386
-11.295597 7.3046746 -0.86640406 -0.095429033 0.11391671 0.98889649 0.025797963
-10.867468 7.4401679 -0.77128732 -0.16166154 0.090910971 0.98264986 0.012952279
-10.137046 7.3176913 -0.7078566 -0.11602878 -0.094972864 0.98869485 0.030361289
-9.7779179 7.2840471 -0.60484934 -0.21214645 -0.053035289 0.97579771 0.036899094
-9.2926579 7.3498664 -0.55143356 -0.086352699 0.00019918804 0.99626464 0.023660537
-8.7836952 7.1897469 -0.56569266 0.012713565 -0.018887801 0.99974078 0.025466889
-8.0895519 7.3639383 -0.63115835 -0.044743583 0.10277718 0.99369758 0.018732211
-7.8216138 7.3687868 -0.59890282 0.051847946 -0.020120336 0.99845231 0.030670183
-5.3542151 7.2117276 -0.54250193 -0.091871858 -0.0076884734 0.99574113 0.012995085
-4.6965914 7.3177176 -0.73247486 0.042033501 0.041457742 0.99825567 0.039093774
-4.4274774 7.3725777 -0.799303 0.21223637 -0.22029555 0.95206386 0.048600208
39.881123 7.2263999 -1.0055823 -0.34160462 0.2551052 0.90455937 0.02529213
40.454109 7.1329913 -0.97046053 0.011069422 0.021953043 0.99969774 0.016285913
40.933029 7.263145 -0.99837112 0.019137751 -0.033786155 0.99924582 0.0039982898
41.137779 7.452332 -1.0006194 0.012515178 -0.0094851041 0.99987668 0.0055258679
42.630688 7.3674474 -1.0246947 -0.22786136 0.20414728 0.95205206 0.017690185
43.309505 7.0959468 -1.0683851 0.029491141 0.13228616 0.99077272 0.028930897
45.113552 7.0548916 -1.1105452 0.12133969 0.21045133 0.97004479 0.029955277
48.898144 7.1746149 -1.1188908 -0.37857011 0.0081051113 0.92553711 0.073865518
49.298309 7.3251834 -0.98110235 -0.11727558 0.10523966 0.98750752 0.038202558
49.854534 7.2692566 -1.0037798 -0.028675662 0.082382172 0.99618816 0.041025132
50.162205 7.170126 -1.002988 -0.015058627 0.15785526 0.98734742 0.042384207
-29.659603 7.9180493 -0.92417496 0.29670525 -0.66317892 0.6871388 0.024142263
-21.772385 7.8300691 -0.70989388 0.039390385 -0.23728888 0.97064018 0.0076990286
-21.26226 7.6509972 -0.87363386 0.12103341 -0.12723525 0.98446029 0.026581766
-20.678427 7.6630406 -0.97694731 -0.26519704 -0.094434381 0.95955861 0.049303278
-20.381376 7.6128035 -0.88772857 -0.12280561 0.072943859 0.98974639 0.028339449
-19.242857 7.5431561 -0.65551782 0.12985165 -0.1476465 0.980479 0.028824225
-18.016487 7.6290612 -0.901133 0.069821343 0.042511582 0.99665326 0.058681279
-17.599941 7.7967615 -0.92469698 0.00033069673 -0.10932384 0.99400616 0.057698071
-17.231039 7.8291082 -0.88214493 -0.088724703 -0.12203061 0.98855269 0.05649095
-16.904692 7.7816601 -0.94516605 0.015938893 -0.053599507 0.99843532 0.042979501
-16.237297 7.736659 -0.86392236 -0.01466776 -0.088507876 0.99596745 0.031195739
-15.744331 7.7520385 -0.85906488 -0.010632079 0.0032659296 0.99993813 0.037131839
-15.257887 7.6699352 -0.80681133 -0.057460163 0.099246748 0.99340242 0.013207724
-14.84666 7.8388233 -0.77553302 0.044426888 0.07130222 0.99646485 0.0096411239
-14.229218 7.8075891 -0.84157664 0.052550271 0.056641646 0.99701065 0.0070929751
-13.823474 7.7779546 -0.82877547 -0.030377939 0.11276548 0.99315715 0.021541236
-13.271781 7.738461 -0.77478844 -0.17125544 0.11062064 0.97899675 0.042869225
-12.862939 7.8244562 -0.76889712 0.1802357 0.19302954 0.96449709 0.064845592
-12.224355 7.8510537 -0.98263842 0.10012014 0.056011923 0.99339753 0.063477241
-11.78239 7.8862901 -0.87254453 -0.15035963 -0.0069590611 0.98860687 0.033062838
-11.188679 7.8442793 -0.82302082 -0.069852814 -0.02769863 0.99717271 0.013494213
-10.78676 7.7918129 -0.80327791 -0.10711523 0.033386022 0.9936859 0.0039395369
-10.132188 7.700263 -0.68056613 -0.12963907 0.056710385 0.9899382 0.019826191
-9.736599 7.723897 -0.69548976 -0.094844297 0.17714587 0.97960395 0.031779878
-9.2427759 7.8416967 -0.58796471 -0.13997327 0.1133465 0.98364633 0.042315114
-8.688921 7.7834659 -0.59909713 0.052990053 0.0020581372 0.99859291 0.028223699
-8.329505 7.7504034 -0.6322391 0.011596229 -0.013719208 0.99983865 0.021875378
-7.741497 7.6595907 -0.64728606 -0.070276409 0.17487064 0.98208016 0.043475389
-7.2818594 7.7952967 -0.59752816 0.1395584 -0.098597847 0.98529279 0.036029126
-6.869328 7.8109698 -0.65084869 -0.085020512 -0.11089222 0.99018908 0.037040282
-6.2756114 7.6906643 -0.54561424 0.081161439 -0.024405817 0.99640214 0.055107296
-5.7206631 7.7726951 -0.54828417 0.028225919 0.050463937 0.99832696 0.033682246
-5.1677003 7.7948947 -0.57529825 0.10993468 -0.012130338 0.99386477 0.043140206
-4.7649345 7.7808557 -0.60715413 0.20779102 -0.01908261 0.97798711 0.050746124
-4.2835736 7.8499613 -0.6949026 -0.0568454 -0.17927763 0.98215485 0.05277162
-3.5962098 7.6584229 -0.5665651 0.41962048 -0.38000521 0.82432681 0.066245325
-3.3668952 7.6583519 -0.76842475 0.84270763 -0.023093546 0.53787589 0.062680878
39.971661 7.4960022 -1.0697758 -0.37812659 0.34142688 0.86049289 0.020741198
41.470539 7.9113212 -0.99423659 0.088632472 -0.067472428 0.9937765 0.01148927
49.31749 7.6191435 -1.056058 -0.10788508 0.18146965 0.9774608 0.035805836
49.861156 7.4992123 -0.99655777 0.0075031947 0.11143623 0.99374324 0.041434824
50.101395 7.526967 -1.0412112 0.013268284 0.17893584 0.98377126 0.044002056
-31.113152 8.3196812 -0.92799121 -0.72142243 -0.64886349 0.24192122 0.0076322178
-29.532663 8.3217993 -0.92699486 0.037705496 -0.064833812 0.99718344 0.033982608
-29.395145 8.3107882 -0.93240589 0.097408898 -0.087252259 0.9914124 0.03642806
-27.903217 8.4066305 -0.98717499 0.55714291 -0.26319292 0.78760475 0
-22.679806 8.1747141 -0.7675333 -0.023451192 0.24214719 0.9699561 0.02653035
-22.412556 8.3955278 -0.79664189 -0.50203544 -0.032417737 0.86423928 0.019720638
-21.12722 8.2631531 -0.75224811 0.21509743 -0.94132477 0.26007834 0.031955935
-20.928976 8.2916937 -0.82377928 0.34936684 -0.44428322 0.82495773 0.024489118
-20.345703 8.2826767 -0.92891562 -0.083266735 -0.017510949 0.99637341 0.029765425
-19.692068 8.3656797 -0.73399162 -0.019960606 0.097128108 0.99507171 0.022079783
-18.331692 8.2455912 -0.7647897 0.45926821 -0.17192493 0.87150133 0.074767984
-17.967201 8.1174574 -0.89288998 0.0073522911 -0.24008812 0.97072327 0.070048571
-17.337847 8.1969738 -0.88169599 0.078384809 -0.14909305 0.98571146 0.056197155
-16.315008 8.1751556 -0.7897132 -0.058039468 -0.22456175 0.97272986 0.04309798
-15.906414 8.204792 -0.74525183 0.19091406 0.3709617 0.90881199 0.14727634
-15.494812 8.26754 -0.88009787 0.05620056 -0.023179209 0.99815041 0.023257846
-14.724491 8.151473 -0.83935457 -0.01069372 0.11505158 0.99330193 0.011614404
-14.303237 8.2972279 -0.86709577 0.15714596 -0.012737138 0.98749322 0.014266535
-13.885267 8.3537817 -0.92405051 0.0031227102 -0.00072829897 0.99999487 0.015096311
-13.292481 8.1475306 -0.81615239 -0.23374575 -0.10742829 0.96634471 0.05783334
-12.81872 8.2568741 -0.75110751 0.10619858 -0.066302292 0.99213201 0.076851413
-11.668047 8.1420727 -0.81794399 -0.16358486 -0.085506745 0.98281664 0.022836797
-11.369033 8.0941238 -0.80925989 -0.0029935504 -0.054380212 0.99851578 0.0066742073
-10.797401 8.3119488 -0.83295244 -0.18543372 -0.24212825 0.95235932 0.020157591
-10.281537 8.1501255 -0.72746962 -0.023428019 -0.038011283 0.99900264 0.031897373
-9.637063 8.2422724 -0.81241864 -0.011304661 -0.033695843 0.99936819 0.054422185
-9.2566624 8.3042498 -0.67871904 -0.31815132 -0.037123453 0.94731283 0.060363051
-8.8091812 8.3049345 -0.56946135 -0.049562935 -0.09002313 0.99470568 0.057429377
-8.3710299 8.2236414 -0.54367465 -0.015994366 -0.082640857 0.99645102 0.020974668
-7.6664958 8.1999321 -0.59298903 0.011012338 -0.056920502 0.99831796 0.033641715
-7.3648829 8.2121143 -0.62016851 0.068155341 -0.062951006 0.99568671 0.033497978
-6.6271143 8.4916458 -0.58564591 -0.057933766 -0.05630739 0.99673122 0.026768016
-6.2444048 8.3014259 -0.54073 -0.044916689 -0.017308988 0.99884075 0.044598699
-5.65413 8.2272491 -0.56248039 -0.045819767 0.012894893 0.9988665 0.039822925
-5.2361498 8.3355665 -0.54326189 0.0344726 -0.00015451455 0.99940562 0.035299666
-4.5814581 8.1299534 -0.69852787 -0.018722942 -0.02310645 0.99955767 0.052073874
-4.4094381 8.1469727 -0.67465663 -0.031267393 -0.012688028 0.99943054 0.05264527
-3.3224597 8.3163786 -0.6005826 0.85553652 -0.22927874 0.46420741 0.033355456
41.339783 7.9996424 -0.9802658 0.10590139 0.023344105 0.9941026 0.01148927
43.16608 8.3361273 -1.0301303 -0.030855741 -0.17087281 0.98480982 0.04847119
43.734447 8.2686291 -0.94735181 -0.35632756 -0.21725452 0.9087525 0.078892633
-38.122097 8.7308435 -0.86167985 -0.023500057 -0.83833236 0.5446527 0.031137176
-37.986687 8.61588 -1.0327898 -0.023500057 -0.83833236 0.5446527 0.031137176
-35.104561 8.9036455 -0.83902878 0.87343931 0.056636926 0.48362797 0
-31.646341 8.9750204 -0.99518061 0.94864982 -0.096285947 0.30131796 0.083238512
-30.212442 8.7393255 -1.0038797 -0.1499421 0.050768901 0.98739046 0.038114026
-29.817158 8.7308941 -0.90796298 -0.051733751 0.049155347 0.99745041 0.04871117
-26.6742 8.5139694 -0.64005059 0.67663509 -0.47067043 0.56624585 0
-23.893602 8.8041792 -0.85642076 0.1441374 -0.159573 0.97660679 0.14834648
-22.307915 8.6046877 -0.82111049 -0.38431525 0.39828005 0.83287138 0.058612652
-20.213436 8.8437881 -0.81528699 -0.043757517 -0.019189605 0.99885786 0.026447641
-19.712778 8.6782064 -0.72933942 0.052336387 -0.081092447 0.99533159 0.03388764
-19.344595 8.8157454 -0.73789841 -0.18743448 -0.086077608 0.97849834 0.019080998
-18.571089 8.6672726 -0.5561406 -0.015287332 0.14981732 0.98859549 0.024026288
-17.485851 8.5286808 -0.70897454 0.098802693 -0.28923339 0.95214605 0.027632792
-16.756039 8.755827 -0.74178386 -0.020911081 -0.26332045 0.96448177 0.050361745
-16.291763 8.637352 -0.82036126 0.22582327 -0.16376308 0.96030492 0.12439226
-15.228002 8.9986811 -0.82393312 0.17651223 -0.18331327 0.96707791 0.018850474
-14.230672 8.8207903 -0.79932708 0.1001237 -0.12654994 0.98689431 0.010531023
-13.888036 8.5981102 -0.92224234 0.020664794 -0.073996112 0.99704438 0.017180124
-12.151222 8.7018147 -0.84923035 0.057096224 -0.12843499 0.99007297 0.042754564
-11.516746 8.787221 -0.76744348 -0.067106403 -0.13734348 0.98824769 0.03317662
-11.417684 8.7999096 -0.75948602 -0.099057876 -0.1603294 0.98208046 0.03317662
-10.901437 8.6301727 -0.71835613 -0.12994866 -0.21659707 0.96757382 0.031229844
-9.6192083 8.5939617 -0.79692358 -0.043967105 -0.2758891 0.96018338 0.064070769
-9.4130459 8.619813 -0.76658368 -0.14954196 -0.28021109 0.94821882 0.069718175
-8.781394 8.6609745 -0.5176692 -0.13839883 -0.088456966 0.98641831 0.030500637
-8.1711912 8.6617336 -0.5322488 0.088758051 -0.070937157 0.99352401 0.021012809
-7.7295122 8.8879261 -0.52946675 0.019223876 0.0064946273 0.99979413 0.032682791
-7.3337646 8.7546968 -0.57156831 0.01088548 -0.04900727 0.99873912 0.027024018
-6.717164 8.6023569 -0.56543529 0.0039617256 -0.098127186 0.995166 0.024915937
-6.106513 8.955512 -0.62509274 0.012796665 -0.05531235 0.9983871 0.030269001
-5.7815304 8.815012 -0.61504114 -0.086657353 0.0010537443 0.99623764 0.04199953
-5.2385988 8.62467 -0.52940667 -0.017293228 -0.026426906 0.99950117 0.035808142
-4.4962454 8.5515575 -0.63762325 0.32034263 -0.040628169 0.94643009 0.040358473
42.988087 8.5438938 -1.005138 0.062456083 -0.11396576 0.99151957 0.038544569
43.179852 8.755538 -1.0078071 0.060303487 -0.021034218 0.99795842 0.032263305
43.606487 8.8315096 -0.98603863 -0.23029658 0.05351045 0.97164816 0.041896634
49.169743 8.7730207 -0.99504083 -0.18102099 0.038869962 0.98271078 0.043285273
49.692707 8.6029682 -0.85096949 -0.98952293 0.14115448 0.030328514 0.046381582
-31.6768 9.0130672 -0.88859743 0.9521578 -0.062966764 0.29904976 0.083238512
-30.054239 9.0408964 -1.0038171 -0.39039463 0.078699633 0.91727769 0.046293937
-29.653252 9.3032007 -0.90578008 -0.18188068 0.070589438 0.98078364 0.028162068
-29.370689 9.0929203 -0.8485195 -0.013590842 -0.012245756 0.99983263 0.027316472
-28.664001 9.3011284 -0.92224985 0.03914848 -0.3119635 0.94928718 0.032349337
-27.71147 9.3142166 -0.88465196 -0.14623322 -0.012142849 0.98917562 0.013263999
-26.09037 9.1088133 -0.70837599 0.69085777 -0.67535788 0.25808379 0.013634882
-25.901302 9.2070274 -0.70436281 0.16904643 -0.98524964 0.026578803 0
-24.356897 9.2280245 -0.81765312 -0.85798943 0.42423087 0.28962445 0.053968851
-23.666893 9.3885088 -0.71753758 0.7097705 -0.29708597 0.638722 0.051619038
-21.883883 9.3367081 -0.7049889 -0.26318061 0.30514255 0.915218 0.059648998
-21.204887 9.356472 -0.68378097 0.072166868 0.23250799 0.96991336 0.031582721
-20.7024 9.3415909 -0.82371104 0.17828251 0.11803394 0.97687429 0.029883221
-20.223545 9.2024307 -0.83287936 -0.035455383 -0.16325825 0.98594606 0.019241702
-19.687771 9.1743984 -0.75391924 -0.035488684 -0.14208537 0.989218 0.025043279
-19.455267 9.2832222 -0.7404719 0.029642658 -0.17288333 0.98449618 0.021724746
-18.261375 9.2279491 -0.57582349 -0.051895361 0.072017506 0.99605238 0.052579034
-17.718084 9.0314188 -0.48272559 -0.069374353 0.013599944 0.99749798 0.034355979
-16.536144 9.3424559 -0.66846305 0.081745662 -0.1276623 0.9884432 0.042940728
-16.31982 9.2866449 -0.66357452 -0.025843212 -0.12906018 0.99129993 0.04667782
-15.659541 9.2822104 -0.63759923 0.15844445 -0.22468536 0.96146339 0.015859479
-15.052465 9.0037727 -0.83806336 0.082446732 -0.15918316 0.98380041 0.016651599
-14.743221 9.4052305 -0.75564021 0.047763407 -0.13889927 0.98915398 0.010767087
-14.290336 9.283514 -0.75330335 -0.090238504 -0.12706706 0.98778081 0.014321795
-13.806426 9.2815332 -0.6799171 -0.12799242 -0.14298584 0.98141378 0.024050577
-13.238156 9.3133373 -0.60779548 -0.10450347 -0.34232774 0.93375093 0.060189739
-12.731038 9.0987749 -0.64885962 0.18826909 0.09959653 0.97705442 0.0025867524
-11.757508 9.4463634 -0.75517941 -0.05776076 -0.099987254 0.99331075 0.052201819
-11.222776 9.2383356 -0.73118281 -0.33047649 -0.0069829603 0.94378841 0.081015773
-9.6192732 8.9672623 -0.56068569 -0.33762231 -0.85070395 0.40288207 0.084076039
-8.1694651 9.2963734 -0.53990996 0.00029890949 -0.068656445 0.99764031 0.041216545
-7.79882 9.2273712 -0.5843873 0.091390982 -0.029434899 0.99537998 0.035304885
-7.240057 9.2744217 -0.5794962 -0.0099122757 -0.053447016 0.99852151 0.031444971
-6.8518238 9.2195864 -0.56085879 -0.00025962165 -0.023419648 0.9997257 0.02886134
-6.20046 9.27386 -0.60629761 0.032498099 -0.058172479 0.99777746 0.029913083
-5.75424 9.2162724 -0.59212017 -0.10526206 -0.065167792 0.99230695 0.039115775
-5.1462502 9.1626654 -0.51040095 0.077738084 -0.010629375 0.99691713 0.029539756
-4.7598281 9.242691 -0.54053658 0.34045807 -0.016506381 0.9401148 0.024393057
-4.2267733 9.3949356 -0.82382703 0.32255697 -0.10356681 0.94086713 0.06079695
-3.1620703 9.3969307 -0.90620667 0.14167312 0.45938614 0.87686551 0.09315218
41.189758 9.040081 -0.99616551 0.85066611 -0.38131714 0.36189005 0.012777749
42.923954 9.2996874 -0.97801286 0.35147643 0.04816822 0.93495673 0.035779092
43.108719 9.0854902 -1.014325 0.19903165 0.074548803 0.97715348 0.03949612
-29.096809 9.7186365 -0.90099108 0.10528882 0.051778775 0.99309278 0.034880526
-28.927755 9.8033075 -0.92951655 0.086371332 0.0074104071 0.99623543 0.033871893
-28.39398 9.949996 -0.96047568 0.08699733 0.093215749 0.99183786 0.02845408
-24.164707 9.8872204 -0.85295707 -0.17134696 0.064302333 0.98311007 0.0035180559
-22.501202 9.5466356 -0.80642748 -0.32277441 -0.13798428 0.93636376 0.048152797
-22.255451 9.7927532 -0.7171067 -0.096203156 -0.033037767 0.99481326 0.039404813
-21.82049 9.633956 -0.71096176 -0.023584688 -0.074533336 0.9969396 0.082851514
-21.300245 9.595047 -0.7116037 -0.0070268754 -0.00045373393 0.9999752 0.056502178
-20.024059 9.9960794 -0.62228405 -0.059494089 0.037249178 0.99753344 0.044449039
-19.603582 9.766449 -0.58518827 -0.013657992 -0.10869273 0.99398154 0.04786361
-19.281027 9.7970572 -0.6768899 0.024080411 -0.039588872 0.99892586 0.027941752
-18.718966 9.8509207 -0.5562734 -0.073444061 0.058689419 0.99557096 0.043708473
-18.382442 9.8508043 -0.58084804 -0.019296108 0.044820592 0.99880868 0.037852585
-17.93646 9.7894869 -0.60683447 -0.0201657 0.06432458 0.99772525 0.031217063
-16.530655 9.7690287 -0.59256297 0.030813046 -0.055814981 0.99796557 0.067703851
-16.475672 9.8782597 -0.55306625 -0.02543089 0.017517302 0.9995231 0.057955153
-15.000561 9.8612194 -0.72637707 0.15490671 -0.19245511 0.96900201 0.01743705
-14.225486 9.5872669 -0.71645272 -0.096019395 -0.076944001 0.99240106 0.026082266
-13.709187 9.8178415 -0.59675312 -0.13429944 -0.045960762 0.98987436 0.04194355
-13.480433 9.7091856 -0.60513902 0.0065899179 -0.010380067 0.99992442 0.036649726
-12.721379 9.827527 -0.72185516 0.014640113 0.041301407 0.99903947 0.028699642
-12.362251 9.8057671 -0.72068161 -0.057781626 -0.022481166 0.99807608 0.047990687
-11.781857 9.7551413 -0.67523861 -0.10906972 -0.31579533 0.94253761 0.072908208
-11.387191 9.7533388 -0.6058833 -0.20662293 -0.18986945 0.95982111 0.09960635
-8.6100512 9.9264803 -0.54455543 -0.1458998 0.34426552 0.92746669 0.076099396
-8.0591135 9.5036888 -0.51849478 0.080700032 -0.064394176 0.99465615 0.055273168
-7.7972178 9.6463995 -0.5451405 0.027557086 -0.11027281 0.99351925 0.056949805
-7.1575971 9.4943428 -0.55275369 0.0047087488 -0.088459961 0.9960686 0.042208046
-6.695538 9.5667582 -0.57054472 0.051819 -0.06125484 0.9967761 0.028125534
-6.141356 9.77246 -0.54076862 0.062349726 -0.052395321 0.99667811 0.054313354
-5.7757182 9.8616505 -0.55708605 -0.0078552384 0.0079101762 0.99993783 0.058020197
-5.2813139 9.8069801 -0.54491258 0.13592063 0.10967501 0.98463035 0.060376905
-4.6637354 9.8525639 -0.80386621 0.26118729 0.03302541 0.96472305 0.048107967
-3.6960368 9.875392 -0.86868387 0.12601303 -0.015974538 0.99189997 0.07168024
-3.3474398 9.7119646 -0.93924958 0.28839374 0.089867011 0.95328534 0.084966697
42.907581 9.7041502 -0.98860335 0.61868989 0.042171575 0.78450263 0.02733914
43.055878 9.5802927 -1.0621413 0.33978048 0.11115284 0.93391341 0.028875709
-29.65118 10.191809 -0.99065119 -0.11308289 0.10546161 0.98797274 0.021809973
-29.366314 10.170652 -0.96521688 0.001859194 0.1042766 0.99454659 0.034046147
-28.991264 10.241678 -0.92580509 -0.00023050755 0.037315901 0.99930352 0.035623174
-28.415766 10.108564 -0.97249931 -0.050978158 -0.02988879 0.99825239 0.043040868
-27.064304 10.31928 -0.85414338 0.064593069 -0.4226605 0.90398329 0.017118074
-26.69013 10.071017 -0.9678033 -0.12531959 -0.22383629 0.96653622 0.010821839
-26.12162 10.347805 -0.8299908 -0.12531959 -0.22383629 0.96653622 0.010821839
-24.540281 10.254974 -0.87804365 0.044358823 -0.18929881 0.98091704 0.011245887
-23.150192 10.026928 -0.91758227 -0.18263955 0.14058082 0.97307748 0.02536159
-22.701557 10.227283 -0.75083667 -0.080697499 -0.014197446 0.99663752 0.093193963
-22.325672 10.331172 -0.81160164 0.078260392 0.23268957 0.96939719 0.063568301
-21.719568 10.036782 -0.91504747 0.0069878711 0.14663149 0.9891665 0.03118862
-21.276161 10.208011 -0.9070158 -0.17905757 0.060171049 0.98199683 0.040991634
-20.779652 10.282819 -0.77592546 -0.12232003 0.0174811 0.99233675 0.037337534
-20.039648 10.016995 -0.62583315 -0.061877083 0.046976976 0.99697763 0.044449039
-19.838846 10.21489 -0.74244869 0.11551105 0.35956118 0.92594439 0.043719534
-19.239569 10.290932 -0.71536696 -0.072647296 0.1995711 0.97718662 0.041058399
-18.709848 10.169876 -0.5703454 -0.11355209 0.12185919 0.98603058 0.05360413
-18.275663 10.291155 -0.52779144 0.016475664 0.0018104614 0.99986261 0.055720977
-17.86006 10.198543 -0.61919373 0.029789871 0.037145421 0.99886572 0.037714306
-17.340206 10.313436 -0.56905413 -0.0059601841 0.067463249 0.99770397 0.032483108
-16.198065 10.363117 -0.57330161 -0.10507286 0.15966156 0.98156399 0.054409865
-15.911127 10.36219 -0.51374692 -0.29386064 0.2215881 0.92980891 0.062001307
-14.640886 10.201828 -0.7285676 0.38768965 -0.12766078 0.91290712 0.06221801
-14.236522 10.275083 -0.7785449 -0.010147568 -0.0033363558 0.99994296 0.071693331
-13.85235 10.137857 -0.65464747 -0.15977648 0.036636133 0.98647314 0.028045222
-13.248547 10.045316 -0.57942116 0.088250712 -0.0073429407 0.99607122 0.039787579
-12.657213 10.226922 -0.67948675 0.070700452 -0.21098186 0.97492981 0.043807879
-12.163631 10.159502 -0.61860538 -0.12817989 -0.17001578 0.97706938 0.056669917
-11.870564 10.160039 -0.5669446 -0.055304863 -0.11943904 0.99129999 0.049424689
-11.265765 10.270978 -0.58533925 -0.19971165 -0.015863977 0.97972625 0.036306087
-11.006627 10.053556 -0.54850632 -0.23215772 -0.059191566 0.97087544 0.044208676
-8.7986984 10.282864 -0.64176083 -0.72332567 -0.18133637 0.66627109 0.027646974
-7.7729635 10.293415 -0.4281472 0.06629841 -0.054118074 0.99633116 0.029041599
-6.6021609 10.239153 -0.47383314 -0.04219605 -0.11014062 0.99301988 0.032687917
-6.203815 10.128405 -0.52403843 0.10468993 -0.1221174 0.98697889 0.064875402
-5.7041802 10.244363 -0.60644066 0.052217569 -0.075846016 0.99575132 0.068730175
-5.2127323 10.093246 -0.60064 0.14425898 -0.0017844939 0.98953837 0.059418295
-4.7913003 10.22719 -0.71310818 0.24671002 -0.06556344 0.966869 0.060723938
-4.3232851 10.306653 -0.82934737 0.11426856 -0.15768947 0.98085511 0.068345129
-3.8392012 10.190364 -0.81753516 0.20519646 -0.029274741 0.97828287 0.065300092
-3.3576381 10.165709 -0.99331868 0.29339397 0.13476655 0.94644493 0.10112976
44.062622 10.020116 -0.92246455 -0.76697767 -0.59459609 -0.24124828 0.0040370594
-38.20356 10.520883 -1.0037419 0.68343186 -0.44970071 0.57505661 0.0025253738
-30.272156 10.977644 -1.029667 0.049026802 0.44842765 0.89247352 0.023343265
-29.558853 10.95789 -1.0173453 -0.068697408 0.040873751 0.99679989 0.023236554
-29.090553 10.750504 -0.94294345 -0.12539214 0.047969792 0.99094689 0.019745279
-28.87286 10.525586 -0.91258657 -0.0049606948 0.013718444 0.99989361 0.024404589
-28.149542 10.918193 -0.92040378 -0.63140541 -0.49466932 0.5971846 0.037262119
-27.758884 10.627845 -0.88298523 0.056527831 0.12493748 0.99055302 0.088810608
-26.048698 10.753548 -0.68933475 0.016928365 -0.35715204 0.93389285 0.002838101
-25.16877 10.667007 -0.72857845 0.12639645 -0.024083897 0.99168742 0.010412019
-24.238895 10.714118 -0.9062717 -0.18679968 0.072612524 0.97971082 0.017972479
-23.794771 10.81165 -0.74648088 -0.23434359 0.43386182 0.86996955 0.0031562981
-23.057859 10.811436 -0.68871301 0.0046949824 0.080844924 0.99671561 0.013242872
-22.680456 10.67677 -0.8532353 0.24235396 -0.015039749 0.97007132 0.08727628
-22.320663 10.736289 -0.9630605 0.11547807 0.063663006 0.9912678 0.058484334
-21.74439 10.733177 -0.88817823 -0.12882343 -0.13392924 0.98258203 0.072744906
-21.266165 10.690133 -0.76308066 -0.063188747 -0.1273078 0.98984843 0.033748999
-20.71669 10.837778 -0.74274015 -0.01809999 -0.11704176 0.99296206 0.036444657
-20.333075 10.723709 -0.79138118 -0.006507399 0.00020540234 0.99997878 0.034919977
-19.878899 10.692991 -0.77607048 0.044965532 0.11108544 0.99279308 0.039889161
-19.243349 10.692619 -0.8088125 -0.19511302 0.076536015 0.97778994 0.040707216
-18.791349 10.665709 -0.67692047 -0.29975909 -0.0086825881 0.95397544 0.039993983
-18.232103 10.653611 -0.54332536 -0.03154815 -0.035351828 0.99887687 0.049372308
-17.677931 10.88607 -0.59603524 0.092528246 0.0029935318 0.99570554 0.031859837
-17.177916 10.946224 -0.67752498 0.072903559 0.071268596 0.99478936 0.031905092
-16.627987 10.839808 -0.66140115 0.0021443386 0.1287047 0.99168062 0.03015844
-16.260662 10.818151 -0.70036328 -0.058077574 0.14147994 0.98823601 0.036599435
-15.836357 10.704074 -0.63842386 -0.13492832 0.27194262 0.95280719 0.030281579
-14.641911 10.724593 -0.68387276 0.1725556 -0.10473377 0.97941583 0.055487655
-14.269016 10.666838 -0.84438682 0.13897559 0.0061453073 0.99027675 0.096993931
-13.848572 10.748105 -0.72043055 -0.25437912 -0.12677145 0.95875973 0.039836213
-13.247866 10.751138 -0.58077449 0.045397792 0.049745359 0.99772966 0.061291184
-12.608224 10.639122 -0.58576208 0.03655199 0.013550432 0.99923986 0.048124224
-12.131757 10.801878 -0.58296484 -0.15508379 -0.017864225 0.9877398 0.048378266
-11.952963 10.815902 -0.57074773 -0.1373869 -0.020904822 0.99029684 0.039499283
-11.062395 10.965425 -0.51784891 -0.031330805 0.039509028 0.99872792 0.031123299
-10.917164 10.95084 -0.51266897 0.019906655 0.058073729 0.99811381 0.031968582
-10.283997 10.589393 -0.45103163 -0.048570685 0.076383919 0.99589479 0.027171018
-9.9661646 10.983897 -0.51587337 0.14439279 -0.11229438 0.98312801 0.034227833
-9.2518673 10.883118 -0.77623355 -0.075125277 -0.18610775 0.97965306 0.039165586
-8.7689543 10.819733 -0.58075446 -0.4185012 -0.14538482 0.89650434 0.036875352
-7.2450309 10.772458 -0.5010879 0.025108278 0.012484519 0.99960679 0.023525104
-5.8405766 10.538353 -0.53712195 0.074001476 -0.089600138 0.99322486 0.048834529
-5.2718463 10.598777 -0.56209999 0.065441027 -0.1460436 0.98711133 0.060048413
-4.5289845 10.719468 -0.67582178 0.19117649 -0.13755868 0.97186887 0.065225057
-4.1700587 10.77346 -0.73730236 0.43002805 -0.00011301631 0.90281552 0.093868665
-3.8566022 10.770642 -0.87021995 0.39881176 0.53859168 0.74220496 0.077953599
-30.786993 11.061734 -1.0381091 -0.36491045 -0.22667895 0.90302658 0.027746603
-29.094032 11.458393 -0.9852137 -0.10730134 -0.044639125 0.99322391 0.034573019
-28.940504 11.476484 -0.97040927 -0.018870266 -0.025705529 0.99949145 0.028273441
-25.015045 11.241715 -0.89133668 0.45028603 -0.017149491 0.89271969 0.017907055
-24.790272 11.328943 -0.97093123 0.23096988 -0.044174153 0.97195756 0.015595214
-24.054913 11.268167 -0.93175477 -0.23216054 0.034675498 0.97205919 0.015170216
-23.891117 11.11685 -0.86575174 -0.17652893 0.060431704 0.98243856 0.012531655
-22.774391 11.326678 -0.84993666 0.28599527 0.042044375 0.95730817 0.085433908
-22.395601 11.346298 -0.96270001 0.047773156 -0.11285072 0.99246281 0.10197417
-21.219664 11.167285 -0.77424526 -0.058069345 0.082113065 0.99492985 0.0076547
-20.816185 11.142945 -0.74413514 -0.076099202 0.061531972 0.99519986 0.0080963038
-20.2621 11.102221 -0.74185079 0.068912737 -0.028995106 0.99720126 0.024964502
-19.628633 11.317057 -0.83560508 0.013521803 -0.066056512 0.99772424 0.042531874
-19.200428 11.185321 -0.84971154 -0.12026878 0.0080246478 0.99270892 0.048179407
-18.807224 11.346006 -0.6590758 -0.21267869 -0.046797335 0.97600091 0.039230898
-18.444101 11.226304 -0.56450492 -0.16493408 0.066446461 0.9840638 0.044343438
-17.91258 11.213132 -0.53299278 0.080920257 0.021335831 0.99649221 0.035301086
-17.280544 11.177515 -0.65791929 0.12033739 -0.023867181 0.99244612 0.02287142
-16.748728 11.229318 -0.67547351 0.081582837 -0.07684318 0.99369985 0.013997167
-16.288956 11.139555 -0.73574334 -0.047779802 0.055894278 0.99729282 0.019904941
-15.773682 11.158183 -0.66408753 -0.13185023 0.00026913974 0.99126959 0.017119532
-15.095355 11.294914 -0.60871899 1.4669177e-05 -0.0072714863 0.99997354 0.066060297
-14.73005 11.219088 -0.58654004 0.085572027 0.00067284034 0.99633175 0.093442313
-14.176436 11.294694 -0.59766269 0.081421167 -0.17202984 0.9817211 0.078995585
-13.788157 11.271063 -0.63255703 0.024847712 -0.15687719 0.98730552 0.065272197
-12.807896 11.269725 -0.69174349 -0.084148161 0.085927173 0.99274147 0.048243172
-12.054177 11.311104 -0.58472455 -0.092409499 0.027025959 0.99535424 0.052615099
-11.943286 11.13744 -0.54770106 -0.11955991 -0.025064705 0.99251056 0.039396428
-11.324144 11.137822 -0.53356415 -0.0084249321 0.022488955 0.99971157 0.039822418
-10.716684 11.360337 -0.60961956 -0.0075066681 0.090550266 0.99586362 0.021908969
-10.180266 11.427362 -0.52628207 -0.09953256 0.064104386 0.99296725 0.022589259
-9.9947596 11.050724 -0.5126552 0.070686787 -0.14279866 0.98722434 0.035894111
-9.2121935 11.016659 -0.69296163 -0.096603543 -0.31628746 0.94373196 0.037312526
-8.9842138 11.067348 -0.62203157 -0.21591763 -0.25164893 0.94342589 0.054578461
-7.7976422 11.414355 -0.47014964 0.025994679 0.083476275 0.99617064 0.031221712
-7.3703508 11.193357 -0.48035315 0.020645808 0.065737568 0.99762332 0.023287557
-6.7648735 11.436165 -0.46802706 -0.041681953 0.035693362 0.99849313 0.021976504
-6.0957732 11.32611 -0.44207919 0.0010051788 0.02535741 0.99967796 0.021829128
-5.187037 11.272624 -0.40759203 0.14103538 -0.016073655 0.98987406 0.042857252
-4.2667446 11.193959 -0.70930624 0.32128718 -0.18484139 0.92876703 0.083702862
-31.202967 11.806704 -1.0647656 -0.0077530886 -0.42182165 0.90664566 0.05221197
-29.792337 11.63473 -0.99110413 -0.11549293 -0.051305898 0.9919824 0.028345503
-29.290157 11.975785 -0.90402639 -0.053962484 -0.098398924 0.99368292 0.044135056
-28.872982 11.70876 -0.96807826 -0.094985798 -0.010903943 0.99541891 0.054211304
-27.470615 11.970387 -0.75007623 -0.3941673 -0.79244995 0.46546233 0
-26.75416 11.578583 -0.81040829 -0.3941673 -0.79244995 0.46546233 0
-24.827333 11.837273 -0.89599103 -0.21661064 -0.095084511 0.97161657 0.017885281
-23.992903 12.002132 -0.79032046 0.0024447371 -0.1727207 0.98496783 0.018801438
-23.439634 11.7662 -0.73901856 -0.0023196256 -0.036488079 0.99933141 0.013413946
-22.643593 11.882102 -0.89336765 0.052618742 0.043058883 0.99768591 0.011158612
-22.3521 11.68317 -0.85458231 -0.024017818 -0.12113316 0.99234563 0.042177279
-21.814384 11.541266 -0.849181 -0.019108959 0.077711537 0.99679273 0.015378677
-21.404819 11.849277 -0.89238912 -0.038552262 0.036485415 0.99859029 0.012515113
-20.711399 11.847088 -0.7876907 -0.14690647 0.002881181 0.98914617 0.01223083
-20.228468 11.799699 -0.70849168 -0.028065747 -0.02444165 0.99930722 0.021882778
-19.742628 11.69953 -0.79132825 0.046169482 -0.075016379 0.99611288 0.022633238
-19.457012 11.638819 -0.82767195 -0.054568391 -0.030765612 0.99803597 0.032152943
-18.758038 11.795148 -0.70150471 -0.15969776 -0.043814436 0.98619312 0.041238766
-18.163933 11.760089 -0.58904952 0.016151238 0.07410495 0.99711967 0.036115572
-17.665768 11.613455 -0.56211942 0.063069224 0.047434561 0.99688125 0.03173117
-17.263634 11.751772 -0.59240246 0.01228589 0.0075181993 0.99989629 0.03029334
-16.758524 11.803346 -0.63675529 0.05595319 -0.095784985 0.99382818 0.02443579
-16.428062 11.627164 -0.70936036 -0.044673305 -0.11581487 0.9922657 0.017432868
-15.212911 11.635225 -0.60019296 0.0014158686 0.011678905 0.9999308 0.029067585
-14.72394 11.794142 -0.6412518 -0.035098318 -0.0058654677 0.99936664 0.033151913
-14.251935 11.617498 -0.54855031 -0.0013998878 -0.073469818 0.99729645 0.047539849
-13.684213 11.923205 -0.63263786 0.013664351 0.04273076 0.99899316 0.044677339
-13.232735 11.90202 -0.62921476 0.068027712 -0.034709714 0.99707949 0.042297084
-12.561748 11.568008 -0.64613289 -0.14145142 -0.05256395 0.9885487 0.044526342
-12.290961 11.706562 -0.58480489 -0.10935795 -0.10412811 0.98853332 0.044763278
-11.811507 11.741324 -0.52213174 -0.12894066 -0.086002551 0.98791593 0.036823351
-11.336954 11.648694 -0.53834343 0.074412033 -0.012369402 0.99715084 0.036601927
-10.637835 11.649262 -0.61332434 -0.048570149 0.041965261 0.9979378 0.021405313
-10.323181 11.79586 -0.601264 -0.093918093 0.029151317 0.99515307 0.026600018
-8.5165796 11.697196 -0.50499028 -0.0078526 0.040767156 0.99913782 0.030837242
-8.2344742 11.715567 -0.52548718 -0.046803609 0.11741731 0.99197912 0.026363954
-7.8800802 11.795963 -0.54083878 -0.060913686 0.07399971 0.9953962 0.023830665
-7.3061996 11.600047 -0.49535102 0.0098089855 0.055000797 0.99843812 0.024143502
-6.8007507 11.831596 -0.48830032 -0.062013179 0.12572165 0.99012548 0.014311586
-5.0855308 11.820399 -0.51368314 0.053574633 0.032617252 0.99803102 0.038425766
-4.7715535 11.65595 -0.52862656 0.45183572 0.10631256 0.8857438 0.068304293
-3.1763017 11.863802 -1.0268917 0.11677554 -0.037918832 0.9924342 0.096965343
0.82745701 11.824556 -0.74732965 -0.97856921 -0.086564966 0.1868391 0.092669316
-30.115053 12.350508 -1.061434 -0.062004659 -0.065483585 0.99592537 0.04488726
-29.580193 12.125443 -0.95504308 -0.19851984 -0.012019667 0.98002315 0.035020545
-29.289925 12.112376 -0.89645416 -0.069041707 -0.055517934 0.99606776 0.031355049
-28.608719 12.378455 -0.88957787 -0.54324186 0.22666849 0.80839944 0.010380387
-27.546967 12.030811 -0.71186101 -0.3941673 -0.79244995 0.46546233 0
-23.980181 11.991482 -0.79206049 -0.0084421849 -0.16233541 0.98669952 0.018801438
-23.18358 12.27169 -0.86883187 0.065456204 -0.023188036 0.99758601 0.012579912
-22.794077 12.420385 -0.86585569 0.019812981 -0.042021364 0.99892026 0.010176257
-22.153135 12.392121 -0.82497454 -0.0085571641 -0.10749997 0.99416828 0.012015801
-21.855577 12.362501 -0.81964535 0.029052753 -0.088960804 0.99561131 0.0098306527
-21.115038 12.475203 -0.80971491 -0.10480148 -0.085946195 0.99077237 0.0090359831
-20.609558 12.38792 -0.73419476 -0.11515789 -0.055125486 0.99181646 0.01079069
-20.134157 12.09106 -0.72760808 -0.019830072 -0.062717326 0.99783432 0.0076440764
-19.841528 12.332795 -0.70218772 -0.12753682 -0.050975058 0.99052304 0.06065283
-19.372892 12.164243 -0.74922729 -0.10312577 -0.24452199 0.96414423 0.024789818
-18.686394 12.245481 -0.5753395 -0.028728284 -0.18979469 0.98140341 0.034642968
-18.279966 12.254304 -0.60207528 0.080259077 -0.074656963 0.99397427 0.051569782
-17.7295 12.355874 -0.6258086 -0.0098705161 -0.036171705 0.99929684 0.051078733
-17.313679 12.447381 -0.57801116 -0.064143255 -0.025455227 0.99761599 0.048181672
-16.698978 12.397703 -0.51010191 0.047611106 -0.094032511 0.99443001 0.04651282
-16.203228 12.081286 -0.68469906 -0.012168107 -0.035985861 0.99927819 0.036539942
-15.702254 12.315123 -0.59914607 -0.049444646 0.0093969554 0.99873269 0.027851187
-15.111845 12.335686 -0.57887423 -0.015419573 0.13243981 0.99107111 0.037413735
-14.614012 12.353811 -0.57796657 0.0021623692 -0.0097103128 0.99995053 0.038496941
-14.349364 12.257116 -0.57635349 -0.002929836 -0.031936467 0.99948561 0.041654412
-13.709204 12.362657 -0.59020537 0.048407245 -0.045743752 0.99777967 0.045372218
-13.205862 12.266065 -0.63883013 0.061464023 -0.036621191 0.99743724 0.043301571
-12.963267 12.057395 -0.61236525 0.015898408 -0.061487537 0.99798125 0.05607681
-12.388447 12.26523 -0.61252415 -0.12718683 -0.044214372 0.99089283 0.031301226
-11.869517 12.106341 -0.52178657 -0.10216827 -0.087899849 0.99087602 0.032683674
-11.081807 12.376764 -0.54588741 0.093696997 -0.0490655 0.99439102 0.023961436
-10.801415 12.305933 -0.58366787 0.033812981 -0.034893408 0.99881887 0.03013517
-10.330747 12.28387 -0.55026251 -0.048240758 -0.0035737425 0.99882936 0.03269206
-9.7593737 12.181852 -0.5513441 -0.049630847 0.11839148 0.99172586 0.026211645
-9.2921648 12.183196 -0.49759948 0.030978831 0.12212089 0.99203163 0.029497806
-8.7150478 12.356905 -0.53003967 0.019050028 0.018529983 0.99964678 0.028249444
-8.2147894 12.13295 -0.58313918 -0.038893346 0.009018492 0.99920267 0.025882063
-7.7624645 12.12463 -0.5483101 -0.0073969071 -0.0067159762 0.99995011 0.021753373
-6.9585958 12.322817 -0.56052077 0.001922368 -0.041259184 0.99914664 0.016977251
