# .PCD v0.7 - Point Cloud Data file format
VERSION 0.7
FIELDS x y z
SIZE 4 4 4
TYPE F F F
COUNT 1 1 1
WIDTH 1450
HEIGHT 1
VIEWPOINT 0 0 0 1 0 0 0
POINTS 1450
DATA ascii
-77.851204 -17.088737 -1.1303338
-64.401062 -17.029037 -1.1397313
-63.880013 -16.905113 -1.0245249
-57.233898 -16.840696 -0.9637171
-56.427097 -16.943913 -1.0908614
-48.361488 -16.83049 -0.92509604
-44.741039 -17.006556 -1.0045196
-44.665508 -16.944063 -0.99109584
-42.413292 -16.958447 -1.1440022
-39.169289 -16.953505 -0.95853543
-36.815559 -17.098177 -1.0388092
-32.34161 -16.802242 -0.90234756
-31.391222 -17.094673 -0.98149663
-30.946066 -16.993176 -0.90034133
-30.446133 -16.953318 -0.99250937
-29.313795 -16.929031 -1.1091601
-28.112663 -17.00853 -1.0223823
-27.128674 -16.961458 -1.0294232
-24.065228 -16.901251 -0.97045988
-21.813517 -17.091204 -1.1478897
-19.360651 -16.905169 -0.96042836
-17.097082 -16.88105 -1.0166179
-12.55665 -16.983242 -1.0768901
-10.518806 -16.839214 -1.1338378
-92.875122 -16.610725 -0.95809716
-89.586975 -16.791046 -1.0362003
-87.578552 -16.661234 -1.0728172
-87.010323 -16.71032 -0.9467116
-84.453529 -16.683556 -1.0106785
-83.615036 -16.596313 -0.9745242
-83.04493 -16.764355 -0.9321807
-79.08522 -16.519171 -0.90930086
-78.7957 -16.664381 -0.91505414
-78.255058 -16.737652 -1.0285305
-77.800575 -16.658112 -0.98313814
-77.166824 -16.575411 -1.1204783
-76.594231 -16.740578 -1.0974622
-55.352047 -16.550766 -1.0717119
-54.159424 -16.501074 -0.92778325
-53.13092 -16.691061 -1.1541992
-43.435692 -16.570667 -0.92736542
-38.120518 -16.711527 -1.0424165
-36.655251 -16.773554 -1.1785194
-32.373745 -16.707514 -0.91918969
-30.413797 -16.621185 -1.0932163
-29.60874 -16.668739 -1.0316354
-29.183289 -16.702572 -0.93023872
-27.677753 -16.528872 -1.1920314
-27.169182 -16.550175 -0.95208538
-23.93071 -16.696968 -0.9595983
-19.513075 -16.637812 -1.195735
-15.147861 -16.648188 -1.0167484
-13.257815 -16.644484 -0.93336302
-11.384882 -16.518539 -1.1172816
-10.552362 -16.669537 -1.1455696
-8.4277325 -16.647472 -1.0771526
-85.354691 -16.368292 -1.0877872
-85.040161 -16.448355 -1.1842607
-83.510635 -16.418606 -0.9434402
-81.446342 -16.433117 -1.0874443
-80.047409 -16.27902 -0.99226034
-78.641434 -16.222773 -1.1876594
-75.381882 -16.297628 -1.1244802
-74.291344 -16.456068 -1.1939203
-59.234772 -16.369341 -1.0380718
-56.546242 -16.261734 -1.1254928
-56.253555 -16.455244 -1.1993589
-54.435223 -16.361731 -1.0656018
-46.099014 -16.315556 -1.1686764
-37.754726 -16.430088 -1.1985655
-33.271152 -16.332943 -0.93216634
-31.732779 -16.409039 -0.99105501
-28.485617 -16.293732 -0.91129363
-27.712603 -16.494221 -1.1308283
-27.40192 -16.262894 -1.0146922
-25.130493 -16.409216 -0.90083462
-21.199427 -16.213995 -0.9943524
-13.110427 -16.335827 -1.0550532
-10.927024 -16.273806 -1.1929911
-10.789512 -16.302904 -1.0796274
-88.237404 -16.112272 -1.0361879
-87.446991 -16.115417 -0.91713887
-82.967659 -16.040569 -1.0288225
-75.503021 -16.14406 -1.1109481
-73.040192 -16.058744 -1.1541147
-60.078003 -16.196823 -1.1246767
-59.909595 -16.078674 -0.93222976
-59.461952 -16.091829 -1.122883
-56.771591 -16.198566 -1.1557187
-55.464455 -16.087555 -1.091012
-53.206448 -16.128084 -1.1826401
-50.903862 -16.07736 -0.98748684
-48.086517 -16.127556 -0.91045594
-42.6791 -16.021925 -0.94231653
-31.801819 -16.184607 -0.98842502
-30.74227 -16.062973 -1.0399035
-30.594521 -16.050419 -1.1048847
-29.504366 -16.02998 -0.95545566
-28.609196 -15.984569 -0.97882181
-27.672491 -16.01709 -0.90643704
-26.195133 -15.959875 -1.1160986
-25.098862 -16.055138 -0.95516866
-21.057013 -16.044062 -1.047909
-20.641905 -16.021694 -0.98194575
-13.5824 -16.026014 -1.0910748
-13.16975 -16.155357 -1.1443398
-10.922375 -16.051867 -1.0784826
46.06554 -16.000603 -1.102275
-86.969269 -15.738993 -1.020255
-86.101845 -15.730587 -1.0128355
-86.065498 -15.888987 -0.94170165
-84.907982 -15.84929 -1.1390156
-80.294609 -15.681302 -0.98598039
-77.263641 -15.896509 -1.010844
-76.78244 -15.600751 -0.99510974
-53.452095 -15.809044 -1.0604231
-51.170811 -15.835103 -1.1671511
-48.67215 -15.846892 -0.9458763
-48.052952 -15.853011 -1.0961668
-47.88826 -15.623742 -1.1282029
-47.342594 -15.769567 -1.0946691
-46.925446 -15.602521 -1.171092
-45.670311 -15.715877 -1.1190888
-43.626698 -15.860624 -0.94215208
-27.356228 -15.732018 -1.0335568
-19.526979 -15.885508 -1.0120535
-14.675391 -15.841723 -1.1796056
-14.287355 -15.808367 -1.171786
-13.424087 -15.714576 -1.1124898
-10.307319 -15.74886 -1.0563644
-97.873276 -15.328052 -0.94539803
-87.62339 -15.561989 -1.1630878
-87.526146 -15.363179 -0.94908553
-86.385376 -15.327904 -1.197188
-85.473404 -15.333306 -0.94940358
-85.04641 -15.339299 -0.99917185
-84.321106 -15.42621 -0.90047598
-78.183746 -15.404369 -1.1005075
-77.36145 -15.438159 -1.0796835
-69.974625 -15.426545 -1.1452668
-58.402683 -15.373758 -1.0182528
-57.617023 -15.448819 -0.95435464
-52.42474 -15.432835 -1.0547179
-51.142914 -15.44487 -0.95603943
-50.71059 -15.544501 -0.93866009
-47.957115 -15.30913 -1.1429913
-45.584297 -15.584433 -1.0008171
-45.269455 -15.322395 -1.0261064
-37.533676 -15.379349 -1.1743799
-36.125771 -15.423754 -1.1765289
-29.544382 -15.341654 -0.91698474
-28.733076 -15.435869 -1.0492476
-28.460039 -15.315334 -1.050869
-27.398785 -15.340596 -1.0178623
-26.064581 -15.411115 -1.1008085
-25.532602 -15.369486 -0.98969012
-21.743259 -15.309267 -1.0272515
-21.029856 -15.483731 -0.9884522
-14.123709 -15.424263 -1.0115541
-12.496609 -15.458588 -1.0144747
-9.3203974 -15.578144 -0.92929953
38.072796 -15.338696 -1.1100488
-95.144913 -15.010747 -0.98978841
-94.740814 -15.067539 -1.1515404
-86.993156 -15.180699 -0.93070471
-86.271187 -15.130509 -0.98220968
-85.727959 -15.16221 -0.94027585
-79.679169 -15.092462 -1.0841641
-70.161041 -15.137955 -1.0903908
-51.832428 -15.261715 -1.1610581
-51.019405 -15.181225 -1.1640524
-50.739536 -15.162166 -1.0666243
-48.106869 -15.268565 -1.1869717
-47.950214 -15.288852 -1.1526824
-47.268616 -15.173821 -1.0351355
-45.481812 -15.122584 -1.0858532
-44.185387 -15.251474 -0.97900021
-36.135189 -15.128415 -1.1056479
-31.836918 -15.208281 -0.97285366
-29.562086 -15.253101 -0.98849773
-28.526922 -15.295882 -1.0992566
-28.327866 -15.030468 -0.92430896
-27.394894 -15.173231 -0.92229629
-16.995884 -15.135823 -1.1681951
-13.285474 -15.042397 -0.98716795
-12.945637 -15.210807 -1.0516732
-12.623796 -15.151583 -0.97010523
38.145168 -15.265903 -1.1237558
-97.3638 -14.83627 -1.0958754
-95.795151 -14.988174 -1.0024743
-94.618088 -14.794197 -1.1064458
-86.323547 -14.717768 -0.99706823
-82.658165 -14.834518 -0.9493323
-82.106628 -14.798757 -1.0189103
-70.735474 -14.74847 -0.99200207
-52.613152 -14.807682 -1.0350963
-52.338509 -14.907331 -1.1676319
-48.508369 -14.977737 -1.1263762
-47.445251 -14.701724 -1.0018063
-46.398331 -14.732377 -1.1672153
-44.403088 -14.982167 -1.0281007
-43.638451 -14.917252 -1.0926158
-43.112892 -14.954698 -1.0073404
-32.728432 -14.78181 -1.0886391
-30.131458 -14.848854 -1.0696285
-28.911169 -14.965776 -1.1335187
-26.134356 -14.875969 -1.1544036
-24.46825 -14.706561 -0.93355381
-20.939983 -14.781715 -1.0651777
-19.938959 -14.701188 -0.92411715
-10.785609 -14.945207 -0.98138291
-97.916664 -14.680361 -0.92890251
-96.347069 -14.653281 -1.0360976
-96.004715 -14.697471 -1.0080551
-95.701927 -14.590416 -0.99414563
-95.274529 -14.65423 -0.99724835
-94.643753 -14.51532 -1.1425959
-94.226852 -14.567656 -1.0246968
-92.791634 -14.506053 -1.1006296
-91.533546 -14.402746 -1.0345752
-86.58699 -14.590864 -1.0540013
-82.045822 -14.638137 -0.93383056
-70.721306 -14.469703 -1.1945295
-69.382118 -14.574031 -1.1316782
-67.189888 -14.444042 -1.114573
-49.82851 -14.427866 -1.1627442
-49.662571 -14.429035 -1.0728315
-48.733387 -14.648497 -1.1560432
-45.554565 -14.530664 -0.96285498
-44.636497 -14.491947 -0.97260952
-44.104294 -14.569646 -1.1802231
-43.974663 -14.512781 -1.1169218
-36.836899 -14.548036 -1.1951348
-29.566639 -14.644333 -1.1344069
-27.948732 -14.456872 -1.0312744
-27.803812 -14.546174 -1.0127741
-24.819565 -14.43784 -0.98368317
-24.488085 -14.536345 -1.0874559
-22.473236 -14.674076 -1.1214612
-15.249016 -14.646675 -1.1908476
-13.328042 -14.688158 -1.1567776
-11.878299 -14.665709 -0.9754833
-11.426252 -14.406304 -0.9968043
-11.12227 -14.617533 -1.1375529
37.669041 -14.407615 -0.90387988
37.801304 -14.517331 -1.0077425
49.493988 -14.679634 -1.1937767
-97.403687 -14.359318 -1.0368997
-96.401695 -14.294383 -1.0002197
-95.50843 -14.307356 -1.02514
-95.037079 -14.373726 -1.0253921
-94.270699 -14.317321 -1.078019
-93.906136 -14.225771 -1.1609633
-93.807388 -14.275128 -0.95903456
-91.574295 -14.304519 -1.1209978
-86.782379 -14.259168 -0.93869787
-86.0485 -14.228509 -1.0585123
-85.744934 -14.32287 -0.98895061
-78.134941 -14.391516 -1.0796323
-77.382233 -14.341906 -0.92041147
-63.576248 -14.142179 -1.1330997
-53.877419 -14.38555 -1.0993721
-51.169647 -14.127478 -1.054733
-50.83614 -14.20723 -1.194346
-49.696384 -14.366521 -1.079085
-47.594395 -14.37043 -0.93474984
-47.020794 -14.220887 -1.1206025
-44.615852 -14.292194 -1.1462767
-43.619968 -14.382285 -1.1290616
-40.648617 -14.129502 -0.91954631
-39.096756 -14.3869 -1.0123686
-38.874767 -14.379741 -1.145532
-38.673382 -14.310949 -1.002636
-31.269062 -14.289496 -0.92020553
-30.693733 -14.157328 -1.0816977
-30.354177 -14.151574 -0.98779398
-23.604784 -14.122822 -1.0823294
-16.278276 -14.381227 -1.0714157
-14.753171 -14.34322 -0.94225186
-11.573196 -14.154694 -1.1613396
-10.252667 -14.209414 -1.0460695
37.714554 -14.208263 -1.0760536
41.931526 -14.229034 -1.089099
-99.360962 -13.957512 -1.0319383
-97.172523 -13.921115 -0.96662384
-95.488724 -14.087342 -0.97259367
-92.290802 -14.023209 -1.1835089
-90.311035 -13.931962 -0.96050888
-89.958405 -13.878394 -0.94659466
-88.019669 -13.903111 -1.0038235
-76.433914 -13.926385 -1.0536401
-52.870319 -14.000638 -1.0236057
-51.159889 -13.954906 -1.1676068
-49.557953 -13.827557 -1.1136018
-47.934139 -13.945515 -1.0144552
-45.281918 -13.92665 -0.98062503
-43.81974 -14.088127 -1.1874883
-42.051506 -13.929913 -0.92241716
-41.662346 -13.838611 -1.1867491
-41.232071 -13.845301 -0.98890072
-40.963604 -13.885757 -1.0149387
-40.768452 -13.867375 -0.963278
-40.401711 -13.820168 -1.157971
-39.574486 -13.98072 -0.97375607
-34.58773 -13.914289 -1.139461
-34.491272 -13.859434 -0.96109909
-31.077225 -13.967227 -1.0970045
-24.865858 -14.092795 -0.98051733
-24.068865 -13.801612 -1.0471256
-23.582914 -13.99509 -1.0507448
-21.752995 -13.860402 -1.1299862
-16.269571 -13.970417 -1.0705798
-12.899821 -13.872411 -1.0467818
-9.9278421 -14.063646 -1.1974214
37.838924 -14.094481 -0.95881867
-95.514534 -13.611791 -0.92641187
-94.951294 -13.75861 -0.97968459
-92.290077 -13.648853 -1.1579245
-87.973808 -13.763481 -1.1257105
-87.773003 -13.639321 -1.0402427
-86.51519 -13.609625 -1.1051087
-84.707932 -13.724023 -1.0033284
-77.476295 -13.511965 -1.0990331
-77.132378 -13.684674 -1.0720714
-69.305626 -13.667729 -1.1463152
-62.186378 -13.730862 -1.1100103
-49.287792 -13.506025 -1.1898642
-47.578812 -13.615233 -1.1009698
-45.67038 -13.716242 -1.116235
-45.009846 -13.597226 -1.0726566
-44.919056 -13.6012 -1.0862068
-44.132225 -13.732854 -1.160899
-41.384296 -13.720622 -0.95435369
-40.825043 -13.779585 -1.0795522
-40.71854 -13.772579 -1.0802048
-40.287926 -13.704062 -0.92855924
-40.084347 -13.592306 -0.96773171
-38.521694 -13.762099 -0.96573138
-34.30003 -13.589356 -0.95276576
-31.856018 -13.642193 -0.90723294
-27.691034 -13.799495 -1.0489708
-25.97283 -13.798068 -0.93539655
-23.118107 -13.725592 -1.0994992
-22.368734 -13.596702 -1.1454526
-20.882534 -13.656091 -1.1254889
-15.315999 -13.703865 -1.1032995
-15.069753 -13.735283 -1.0977311
-14.493657 -13.681911 -0.91807991
-13.898227 -13.566473 -1.1290478
-12.552438 -13.719299 -1.0426921
-10.937086 -13.521224 -1.0197394
20.410887 -13.579697 -0.97004014
37.265198 -13.752193 -0.91726494
-99.145363 -13.376109 -0.90159339
-97.422279 -13.243461 -0.95967925
-96.640251 -13.37618 -1.0975596
-95.875191 -13.202687 -1.1874862
-95.453911 -13.339183 -1.1861869
-94.389969 -13.283328 -0.97403073
-93.867584 -13.370071 -1.1742384
-93.194725 -13.436434 -0.98624641
-90.811401 -13.360261 -0.94652897
-90.049614 -13.462795 -0.91271067
-86.550293 -13.325116 -1.07818
-69.31456 -13.413667 -1.1331238
-68.231613 -13.342609 -1.0524662
-64.345444 -13.460084 -1.0697936
-64.147339 -13.207678 -1.0914196
-62.114834 -13.248509 -1.1346108
-60.653938 -13.337686 -1.1337138
-57.33955 -13.22632 -1.1260538
-51.215336 -13.447772 -1.0965039
-47.324112 -13.392573 -1.0019776
-46.990765 -13.259428 -0.98823696
-45.91227 -13.377916 -0.99900973
-45.693798 -13.298004 -0.96797276
-45.480618 -13.276261 -1.0168138
-45.240711 -13.369578 -1.0811266
-44.682453 -13.396935 -0.92958224
-44.000202 -13.219567 -0.95419627
-42.250336 -13.254637 -0.90612102
-41.74025 -13.466603 -0.99843287
-41.52898 -13.430503 -1.0698267
-40.78616 -13.285871 -1.1876595
-39.593822 -13.42134 -0.99862617
-31.890665 -13.365817 -1.1493974
-30.761702 -13.488855 -1.1599946
-30.23683 -13.39225 -1.004729
-29.637869 -13.294831 -1.0997523
-28.194883 -13.235368 -0.9446584
-26.119003 -13.287229 -0.9115836
-24.657087 -13.372054 -1.0932893
-22.390827 -13.470545 -1.164808
-20.652861 -13.234993 -0.93733132
-20.381157 -13.482494 -1.1824571
-17.827789 -13.427616 -0.97739053
-17.609829 -13.290584 -1.079836
-15.288431 -13.49414 -1.0454459
-13.774119 -13.203997 -1.195166
-9.7150002 -13.494428 -1.0277337
21.918594 -13.252818 -1.1229863
-98.449547 -12.982369 -0.96015012
-97.414398 -12.997032 -1.1050909
-95.752258 -12.903949 -1.0675136
-95.600159 -12.976745 -1.1086323
-92.953735 -13.057318 -0.94576293
-89.517525 -13.018275 -1.1153393
-89.327225 -12.903749 -1.126577
-88.988312 -13.081802 -0.96108437
-87.512268 -13.108156 -1.1680992
-86.565437 -13.196687 -1.0920287
-85.681595 -13.073237 -0.91258603
-72.214493 -13.143045 -1.0194848
-69.077087 -12.969631 -1.0475321
-62.863243 -13.124213 -1.1268058
-61.903091 -12.985147 -1.066453
-59.940788 -12.920417 -1.0875289
-58.739723 -12.935259 -0.9531185
-50.961628 -12.960822 -1.0907878
-47.130627 -13.013365 -1.1253053
-46.41877 -13.042852 -0.90491235
-46.097229 -13.039464 -0.99229193
-45.52578 -13.040951 -1.0069971
-45.215084 -13.177772 -0.98494959
-43.78064 -13.170112 -1.0703248
-43.492943 -13.070176 -1.0602691
-43.056187 -12.98401 -0.98150253
-41.956314 -13.032274 -1.0880576
-41.566898 -12.925652 -1.1256785
-39.363323 -13.10358 -0.90272486
-39.071934 -12.923321 -0.90487826
-38.911552 -12.929712 -1.0868241
-35.255627 -13.165371 -1.1774677
-34.208992 -13.19433 -1.1145248
-30.995592 -13.082509 -1.0667351
-29.159462 -13.01669 -1.0673389
-28.950638 -12.972629 -1.1552062
-28.333282 -12.995 -0.99462634
-28.198244 -13.0925 -0.92474097
-24.913431 -13.031523 -1.1578376
-17.752115 -13.146587 -1.0455388
-15.984517 -13.079241 -0.9432013
-15.603638 -12.925069 -1.0860949
-14.896952 -12.938251 -1.1002256
-14.381378 -13.174582 -1.1137719
-13.924172 -13.122288 -1.1242764
-97.55043 -12.851545 -0.97923225
-91.868423 -12.688811 -1.0551231
-91.604149 -12.78244 -1.1281832
-89.868752 -12.801537 -1.1419908
-89.639565 -12.873845 -1.068176
-89.286186 -12.846414 -0.9638328
-87.51226 -12.677294 -0.93823248
-87.040703 -12.719616 -1.007251
-86.760262 -12.662207 -1.0658813
-86.178505 -12.724378 -1.0807128
-78.393265 -12.674633 -1.0792766
-72.302986 -12.767879 -1.174118
-71.853333 -12.754418 -1.1002352
-69.124565 -12.880346 -1.0673282
-68.840172 -12.71033 -0.97094673
-64.755402 -12.648521 -1.1703582
-62.61871 -12.831739 -1.0805706
-60.400185 -12.892932 -1.1376313
-50.003544 -12.857789 -1.1881322
-48.236359 -12.768955 -1.0436515
-46.105335 -12.678349 -1.0713358
-45.130554 -12.704217 -1.1512549
-44.017212 -12.625237 -0.96850085
-43.572361 -12.765539 -0.93331259
-43.187176 -12.652226 -0.95980525
-42.544083 -12.786763 -1.0994482
-40.54282 -12.753803 -1.164524
-39.962715 -12.748295 -0.95327461
-39.427471 -12.678729 -1.1011919
-36.969494 -12.816307 -0.90775794
-36.388992 -12.804996 -0.92386287
-36.251812 -12.759289 -0.92719269
-31.837147 -12.715264 -1.0315148
-31.385283 -12.691504 -0.99086815
-31.024754 -12.864113 -0.9922123
-29.912382 -12.610755 -0.95970428
-28.426275 -12.788443 -0.99035025
-26.859512 -12.682015 -1.0098356
-26.168509 -12.71074 -1.0552425
-25.968382 -12.896892 -1.1568656
-16.75975 -12.625163 -1.1973906
-15.638279 -12.880393 -1.0304739
-14.376133 -12.617696 -1.0952126
-14.011269 -12.813102 -1.0532607
-13.411278 -12.678571 -1.018447
-97.201859 -12.52137 -1.1955175
-97.144203 -12.515718 -1.1506164
-95.955353 -12.58639 -0.90734994
-95.155884 -12.382381 -1.0666802
-95.093292 -12.494791 -1.0766888
-93.649178 -12.430983 -1.112663
-92.937798 -12.479395 -1.1671087
-91.30574 -12.498991 -1.1607019
-90.756004 -12.381735 -1.063992
-89.226906 -12.376451 -1.1086361
-88.659912 -12.328484 -0.95497197
-87.257423 -12.530192 -1.0939591
-86.823883 -12.528941 -1.1309016
-86.13224 -12.54264 -1.03221
-86.099113 -12.565365 -1.0534807
-85.184288 -12.464345 -1.0681405
-64.564392 -12.327997 -0.90238214
-64.173851 -12.377598 -1.1258411
-61.859936 -12.414521 -0.94149178
-61.410255 -12.52682 -1.1231037
-59.27037 -12.449645 -1.0745884
-57.776077 -12.312965 -1.1237407
-56.063202 -12.337239 -1.0084554
-54.709839 -12.420755 -1.1666347
-54.482018 -12.331983 -1.1939638
-50.429996 -12.502443 -1.1332999
-47.766342 -12.340168 -1.0219703
-47.023853 -12.444009 -1.0135983
-44.754494 -12.418877 -1.1681668
-43.9095 -12.481429 -1.1807346
-43.739941 -12.539454 -1.0851004
-42.987057 -12.419501 -1.0270146
-41.7579 -12.337317 -0.97320747
-40.921967 -12.351995 -1.0921974
-40.684444 -12.402962 -1.1410248
-39.63451 -12.399301 -0.9537093
-38.856445 -12.322976 -0.90888643
-37.553928 -12.594886 -0.96106511
-37.311859 -12.43201 -1.0253578
-37.193951 -12.410985 -0.95055681
-36.711193 -12.546642 -0.98135918
-36.4007 -12.589458 -1.0215172
-35.877522 -12.304872 -1.0284581
-35.633301 -12.559939 -0.92652124
-31.889572 -12.544083 -0.91562194
-29.796608 -12.518191 -1.0119866
-29.232403 -12.374269 -1.0019222
-27.521307 -12.389127 -1.1654699
-27.263817 -12.479631 -0.98349941
-26.884493 -12.503984 -1.1301277
-24.210257 -12.419733 -1.0186368
-21.692165 -12.450552 -1.0313336
-15.968384 -12.349071 -1.1452831
-12.745393 -12.339569 -1.13508
-11.902555 -12.529748 -1.0393704
-10.565576 -12.345468 -1.1291592
-95.541702 -12.287772 -0.99313086
-95.180984 -12.273174 -1.1082888
-93.93586 -12.05168 -1.0333855
-93.163177 -12.060965 -0.93489468
-91.760429 -12.13799 -1.1315159
-91.125 -12.09325 -1.1203778
-89.168083 -12.29108 -1.042882
-88.949921 -12.156957 -0.93270695
-88.774078 -12.285486 -1.0910088
-88.265152 -12.16708 -1.0106755
-86.626976 -12.014626 -0.94802088
-80.492691 -12.147734 -0.96802104
-70.318901 -12.23771 -1.1574918
-69.608032 -12.20743 -1.1695964
-69.235596 -12.016217 -0.91343665
-68.610222 -12.062361 -0.94786036
-62.183838 -12.051407 -0.95265013
-61.727234 -12.29569 -0.90666842
-59.938591 -12.209677 -1.1720723
-59.604748 -12.252853 -1.1272787
-58.484661 -12.136297 -1.0539991
-57.46965 -12.114195 -1.0765501
-56.120167 -12.291465 -1.181722
-50.03381 -12.089828 -0.911551
-48.909367 -12.175508 -1.0104972
-47.882614 -12.060894 -0.99160606
-47.499565 -12.067921 -1.0849807
-46.951706 -12.070564 -1.004467
-46.6595 -12.083266 -1.0456536
-46.407101 -12.194263 -1.0334797
-44.188366 -12.167122 -1.1377845
-43.973759 -12.120932 -1.1015286
-43.377441 -12.148338 -1.0928372
-41.775005 -12.108075 -1.0110009
-41.570465 -12.077052 -0.96194893
-41.357769 -12.131452 -0.95298511
-40.573505 -12.291471 -0.96565592
-40.126846 -12.294573 -1.123413
-39.142193 -12.195651 -0.96843326
-38.727772 -12.24385 -1.0092975
-38.589691 -12.160409 -1.1613163
-38.134785 -12.255287 -0.95042926
-36.850937 -12.219229 -0.93802464
-36.385464 -12.155213 -1.020487
-36.147633 -12.242494 -0.98476827
-35.797459 -12.232109 -1.1265872
-34.757111 -12.057944 -0.9145788
-33.398262 -12.005527 -0.93263072
-31.572437 -12.153478 -0.91937363
-30.502937 -12.014009 -0.96694028
-29.788393 -12.117141 -1.0518918
-29.599545 -12.214118 -0.92571229
-28.953104 -12.228941 -0.96757698
-27.124481 -12.179928 -1.1355839
-26.812119 -12.10504 -1.0887587
-26.482346 -12.00384 -0.98614144
-21.619259 -12.178536 -0.97244859
-15.184988 -12.069877 -0.94492573
-14.703543 -12.201119 -0.99618572
-13.485248 -12.24299 -1.1421711
-12.101501 -12.108238 -1.1438477
-98.0849 -11.719776 -0.90654987
-97.186844 -11.805887 -0.91777462
-96.687538 -11.718204 -1.0872684
-96.518402 -11.760433 -1.1020212
-94.914474 -11.992436 -1.1676664
-92.547096 -11.710484 -0.90295988
-92.132469 -11.744003 -1.1310769
-88.47419 -11.909475 -1.1123346
-87.412086 -11.706614 -1.1709207
-83.414818 -11.886381 -0.97689903
-79.445602 -11.913971 -1.1088964
-70.932907 -11.792388 -1.0961925
-70.387253 -11.906806 -0.90849459
-69.719772 -11.917844 -1.070066
-68.813698 -11.927008 -1.0649772
-68.630371 -11.932923 -1.0278648
-57.685482 -11.953877 -1.0678082
-56.526009 -11.762747 -1.0382614
-46.864807 -11.85404 -1.0461836
-45.126247 -11.932491 -1.0945948
-44.922058 -11.945415 -1.0805519
-44.033157 -11.804758 -1.0406445
-41.551449 -11.915064 -1.1278688
-40.279884 -11.764739 -0.96084636
-40.181313 -11.749545 -0.9521516
-38.837852 -11.876277 -0.93735051
-37.863617 -11.874926 -0.96204454
-37.743332 -11.865483 -1.02561
-34.755142 -11.900834 -0.97804487
-34.001278 -11.81872 -0.96596301
-33.84111 -11.792553 -1.0354997
-32.660316 -11.951074 -1.0340928
-32.269016 -11.760349 -0.96570933
-32.082355 -11.809334 -0.92096019
-31.335928 -11.948094 -0.98339999
-31.114935 -11.959394 -1.1421146
-28.852482 -11.990773 -0.98586386
-28.77187 -11.882793 -1.0648104
-27.285673 -11.925466 -0.97775304
-26.484316 -11.944272 -0.97783417
-26.298704 -11.758085 -0.94003397
-17.052027 -11.907269 -1.168143
-14.495974 -11.751525 -1.1239803
-13.629394 -11.972878 -1.1466027
-98.781418 -11.544168 -0.99827212
-97.078903 -11.4422 -1.0324566
-96.515564 -11.599716 -1.1087962
-95.859566 -11.524991 -1.037344
-95.460831 -11.581493 -1.0947204
-95.290756 -11.514834 -1.1590928
-93.125443 -11.665632 -1.0421809
-92.962723 -11.430862 -1.1060835
-92.593819 -11.551907 -1.0345354
-90.478508 -11.574463 -1.074591
-79.194489 -11.516556 -0.96121323
-60.013 -11.536835 -0.99520677
-58.223373 -11.678115 -1.0143516
-58.199226 -11.600329 -1.0010742
-53.72559 -11.405935 -1.1040496
-52.408264 -11.442468 -1.1260412
-51.890602 -11.646415 -0.99004436
-50.530617 -11.662962 -1.1134014
-45.565601 -11.5057 -1.1622313
-44.497429 -11.534057 -1.0908501
-42.43655 -11.640843 -0.94399172
-41.787224 -11.684749 -0.97362149
-40.404545 -11.439889 -1.0265396
-39.057068 -11.528419 -0.95385873
-38.744781 -11.620751 -1.0437299
-38.510006 -11.566681 -1.1214658
-37.72876 -11.665709 -0.99254227
-37.323772 -11.552929 -1.0047717
-36.815395 -11.667488 -0.95699215
-36.467392 -11.656627 -0.91478825
-35.968704 -11.529791 -0.96893585
-35.653381 -11.482678 -1.0148211
-34.681309 -11.507731 -0.97093213
-33.791962 -11.503922 -1.0178227
-33.381069 -11.556583 -1.0750787
-33.180645 -11.563443 -1.0505049
-32.760918 -11.42387 -1.0022663
-32.52948 -11.587775 -1.0051525
-32.211552 -11.513912 -1.0256757
-31.693693 -11.423532 -1.1086034
-31.061644 -11.606535 -0.92595965
-30.859962 -11.450301 -0.98137289
-30.488424 -11.47772 -0.95597136
-30.05335 -11.429102 -1.0404691
-29.905231 -11.451216 -0.90027314
-29.67391 -11.684916 -1.0241582
-28.878294 -11.699305 -1.1110679
-27.339087 -11.596823 -1.0025349
-25.336485 -11.496282 -1.1743764
-25.160738 -11.50958 -1.0588758
-24.385937 -11.573939 -1.0648766
-23.19772 -11.408368 -1.0696267
-22.97489 -11.565461 -0.96333885
-20.664797 -11.678779 -1.0290431
-15.302307 -11.446157 -0.98966587
-15.251898 -11.53807 -0.99925572
-14.920858 -11.680946 -0.98050988
-14.572092 -11.60678 -0.98302859
-96.977776 -11.253099 -1.0802486
-95.329315 -11.18386 -1.0876601
-93.15345 -11.191917 -0.94166136
-92.346008 -11.358004 -1.1129292
-91.24472 -11.242959 -1.1573062
-90.176216 -11.118223 -1.1168633
-87.117905 -11.196339 -1.0507559
-86.37355 -11.326736 -1.1199437
-80.26107 -11.196964 -1.193831
-79.295967 -11.257747 -1.0544453
-79.189392 -11.229114 -1.1781228
-71.805305 -11.228457 -1.0037996
-58.751484 -11.374518 -0.91626132
-54.788124 -11.206135 -1.1588032
-51.731838 -11.34953 -0.94139636
-49.658184 -11.33778 -1.1460935
-45.748718 -11.222548 -1.0807598
-42.876621 -11.315076 -1.1510389
-42.548782 -11.355564 -0.96014315
-40.822273 -11.266059 -0.968916
-40.627193 -11.289755 -1.1498247
-40.402439 -11.166359 -1.0278249
-40.089779 -11.314782 -1.0329927
-39.391663 -11.183583 -1.0046271
-39.173584 -11.274816 -1.0604675
-38.781017 -11.374454 -1.1722789
-37.781544 -11.272561 -0.94787556
-37.32864 -11.317252 -1.1684754
-37.058708 -11.169316 -0.92909646
-36.064304 -11.249466 -1.0816935
-35.92942 -11.218235 -1.0088338
-35.559166 -11.211428 -1.055809
-35.315849 -11.269148 -1.0564747
-34.291512 -11.124583 -1.1039128
-34.145863 -11.11691 -1.0153575
-33.652794 -11.288879 -1.019321
-33.394501 -11.309679 -1.0083817
-33.105976 -11.237946 -0.95203787
-32.820045 -11.284983 -0.95816255
-32.626495 -11.343801 -1.1978807
-32.312645 -11.221487 -1.0118866
-31.881971 -11.234144 -0.99919021
-31.66061 -11.151436 -1.078305
-31.044739 -11.320898 -0.96427643
-30.671135 -11.15511 -0.94552135
-30.439754 -11.234315 -0.98972785
-29.609581 -11.322104 -1.0930885
-28.870005 -11.12162 -0.92987525
-28.728418 -11.272135 -0.95638406
-28.429968 -11.175375 -0.94232458
-26.291546 -11.373228 -0.92763847
-25.187151 -11.399933 -1.0547299
-24.387623 -11.293832 -1.1812234
-22.595936 -11.263995 -1.0512434
-21.535395 -11.388816 -0.90166593
-19.700974 -11.288556 -1.1639405
-19.078867 -11.245508 -1.0046787
-13.426717 -11.213462 -1.1851268
-96.533791 -10.899009 -0.94914615
-95.487457 -10.828792 -1.0249875
-95.151001 -11.038917 -0.97479331
-94.011276 -11.039486 -1.0988673
-92.160751 -10.904937 -1.1146538
-91.400414 -10.963511 -1.1277741
-91.057045 -10.827681 -1.0196064
-90.816803 -11.099998 -1.0386593
-90.179962 -11.077979 -1.1570851
-89.182846 -10.842167 -1.0866805
-88.749214 -10.890897 -0.92233479
-87.669724 -11.007848 -0.90493482
-87.495842 -10.974987 -1.0557423
-86.251007 -10.953247 -1.0511984
-85.577011 -10.953424 -1.1963643
-79.54142 -10.82523 -1.0437424
-79.376434 -11.026931 -1.0101308
-70.136864 -10.952492 -0.91130185
-69.403854 -10.92885 -1.0981345
-64.655357 -10.827008 -1.0344104
-55.196293 -10.889356 -1.1369942
-53.879848 -10.904447 -1.1386704
-51.967663 -11.058227 -1.1908621
-51.268871 -10.840325 -1.1180795
-42.714851 -11.000798 -1.1494703
-40.712833 -10.805214 -1.1889883
-39.40834 -11.031613 -1.0807401
-39.000767 -10.885278 -0.99712944
-38.02177 -11.071232 -0.96167451
-37.649487 -11.010836 -1.112924
-37.292946 -11.073726 -1.0214646
-37.082432 -10.972702 -1.0968423
-35.94952 -10.952248 -1.1144263
-35.504307 -10.877065 -1.0039959
-34.70739 -10.986429 -0.91732341
-34.334019 -10.952042 -1.1227505
-33.966934 -10.91436 -1.0139817
-33.704746 -10.981887 -1.0318263
-33.59705 -11.071367 -1.0373207
-33.126335 -10.958126 -0.9925257
-32.99585 -10.820343 -0.96224391
-32.590866 -10.955952 -0.95621544
-32.221279 -11.004163 -0.9676711
-31.923174 -10.986891 -1.0063175
-31.722525 -11.00211 -0.99110377
-31.31526 -10.827501 -1.1019654
-31.100319 -10.911255 -0.91757822
-30.707848 -11.008191 -0.96982402
-30.58132 -11.032545 -1.0186552
-29.183844 -10.866625 -0.9794119
-28.864706 -10.991895 -0.9756586
-28.56826 -10.934133 -0.95262641
-28.114685 -10.94647 -1.0445697
-26.963861 -11.030005 -1.1872114
-24.538498 -10.846516 -0.95095062
-23.603754 -11.001065 -0.98117602
-23.203026 -10.935701 -1.0247563
-14.50447 -10.98175 -1.0241536
-14.278112 -10.993109 -1.0380543
-96.135818 -10.627144 -0.9520359
-94.494064 -10.723919 -1.1885637
-93.48452 -10.549434 -1.0070261
-92.733475 -10.535095 -0.96371341
-92.261566 -10.641722 -1.1458603
-92.054214 -10.774069 -1.0680904
-90.317078 -10.62121 -1.015281
-88.865356 -10.776187 -0.94500774
-87.370117 -10.63074 -1.1731284
-87.213867 -10.626631 -1.0442499
-86.071877 -10.794295 -1.1537036
-83.88765 -10.611443 -1.000029
-79.834114 -10.693069 -1.0818876
-79.442757 -10.650294 -1.0475765
-79.120949 -10.664402 -0.96042776
-76.364525 -10.614384 -1.1734401
-74.562843 -10.694314 -1.1022944
-73.460617 -10.783702 -1.081771
-72.96022 -10.569111 -1.0393043
-72.673698 -10.594473 -0.97622955
-69.13176 -10.696045 -0.98585951
-64.846611 -10.74369 -0.97147703
-62.240791 -10.722765 -0.92850441
-60.300655 -10.557072 -1.0002723
-59.941746 -10.556259 -0.91755414
-54.957001 -10.717196 -0.93187922
-51.269653 -10.797155 -1.0042053
-48.000908 -10.746379 -1.1438303
-42.729233 -10.778368 -1.0593889
-41.590164 -10.7174 -1.0218757
-41.10928 -10.604809 -1.0568948
-40.960106 -10.682142 -1.0826875
-40.637886 -10.727342 -0.91029757
-39.399124 -10.624184 -1.0359608
-38.250042 -10.614481 -1.1204045
-37.971432 -10.630588 -1.1096823
-37.778896 -10.711475 -1.1698132
-36.714279 -10.777493 -1.1184905
-35.498035 -10.791537 -1.156034
-35.274616 -10.702351 -1.0214357
-34.241623 -10.591671 -0.95271564
-34.126343 -10.604 -1.0021313
-33.800694 -10.776591 -1.016006
-33.16478 -10.638784 -1.0983818
-32.748077 -10.51592 -0.95311749
-32.573311 -10.556122 -0.99282706
-32.270256 -10.563112 -1.0035466
-32.018471 -10.570328 -1.0191953
-31.657022 -10.655681 -0.98245019
-31.282255 -10.715177 -1.0200735
-31.124849 -10.565702 -0.99416834
-30.821295 -10.589808 -1.0753224
-30.403605 -10.795078 -1.145481
-30.196825 -10.502213 -0.94610769
-29.851868 -10.57511 -0.93717557
-29.582968 -10.630224 -0.9589234
-29.258629 -10.753856 -0.97539598
-28.959053 -10.714933 -0.93527383
-28.791487 -10.70414 -0.93915337
-28.321211 -10.690579 -0.98562509
-28.154177 -10.625179 -0.96576476
-27.734257 -10.571879 -0.95166111
-27.481884 -10.78832 -1.181767
-27.041222 -10.615248 -0.97864503
-26.860968 -10.651581 -0.95467395
-25.971687 -10.682927 -0.94142538
-25.542734 -10.742072 -0.91774356
-23.566208 -10.627124 -1.0834733
-23.302525 -10.740551 -0.94420093
-22.006264 -10.640951 -1.0230011
-19.321712 -10.546358 -0.99342436
-18.940866 -10.625027 -1.0151271
-15.468966 -10.651624 -0.96774501
-14.918965 -10.539181 -1.0622749
-12.940442 -10.701499 -1.171281
-12.888456 -10.514619 -1.1604781
-99.136314 -10.455302 -0.98655039
-96.565376 -10.486849 -0.98892462
-95.043922 -10.481777 -1.1572565
-93.943909 -10.277462 -1.1281723
-93.675453 -10.440135 -1.1609895
-93.545929 -10.418785 -0.99623466
-92.593819 -10.465775 -1.1952236
-92.015854 -10.490013 -0.90154618
-91.623085 -10.327626 -1.0018404
-90.743073 -10.371003 -1.110375
-90.230675 -10.274826 -0.97653389
-89.767921 -10.415489 -0.93323827
-88.996933 -10.264869 -1.1181991
-88.77655 -10.22121 -0.96955645
-87.576294 -10.35586 -1.0450506
-86.85173 -10.417977 -1.0490611
-86.038597 -10.486157 -0.97832596
-82.297958 -10.342512 -1.0257186
-79.884399 -10.311749 -0.9444412
-73.353859 -10.293747 -1.1203556
-72.755699 -10.253498 -1.1564416
-72.070755 -10.495743 -1.1387179
-71.977509 -10.47996 -0.911327
-55.368004 -10.2674 -1.0150105
-50.252453 -10.497161 -0.91500574
-46.641216 -10.422466 -1.1072562
-44.784512 -10.212472 -1.0611906
-44.661266 -10.273285 -0.99166203
-40.975136 -10.380882 -1.0339918
-40.650536 -10.371634 -0.97788942
-40.454338 -10.344191 -0.97677225
-39.821205 -10.46692 -1.0642445
-39.386681 -10.300033 -1.0187838
-37.843685 -10.249795 -1.0368932
-37.784042 -10.248372 -1.0504432
-37.098526 -10.200232 -1.0471617
-36.34005 -10.38438 -1.1637665
-36.064552 -10.433058 -1.0100845
-35.87738 -10.284434 -1.1325814
-35.502338 -10.307442 -0.93575078
-34.542763 -10.473057 -1.0055534
-34.297653 -10.404718 -1.041301
-33.964569 -10.347135 -1.0493593
-33.876884 -10.347441 -0.94659185
-32.743286 -10.322839 -1.0665066
-32.599857 -10.395262 -1.0584848
-32.207237 -10.461073 -1.0449237
-31.943445 -10.40666 -1.0512958
-31.745216 -10.407108 -1.0544232
-31.30191 -10.282206 -1.0350223
-31.032867 -10.312922 -1.0587951
-30.770823 -10.331325 -1.0258577
-30.596708 -10.319758 -0.99636769
-30.145788 -10.34938 -0.99875242
-29.841413 -10.385231 -1.0029758
-29.583878 -10.366446 -1.0700314
-28.516136 -10.297235 -0.93918747
-28.351025 -10.417133 -0.96131128
-28.1061 -10.359837 -0.9632408
-27.710596 -10.338721 -0.93442768
-27.482607 -10.307528 -0.91757679
-27.063122 -10.34281 -0.97794867
-26.632641 -10.434232 -0.94829106
-26.26194 -10.395271 -1.0536505
-26.03739 -10.265504 -0.94966662
-25.719511 -10.270298 -0.96135372
-24.988575 -10.247187 -0.93419325
-24.794552 -10.447268 -1.1066858
-24.020639 -10.439962 -0.95322549
-22.964565 -10.44392 -0.90667915
-21.615683 -10.242913 -1.1574204
-21.559097 -10.416348 -1.05191
-18.381521 -10.344972 -1.075487
-17.619398 -10.385983 -0.97471559
-96.774414 -9.9350739 -1.0850688
-96.176285 -10.01614 -1.0044957
-95.968552 -10.138532 -0.99372512
-95.695328 -10.148928 -1.1440797
-95.152489 -10.123537 -1.007226
-93.432877 -10.07888 -1.1886951
-91.84462 -10.020405 -1.0102733
-91.643402 -10.032723 -0.91933918
-89.014862 -10.098195 -0.98871756
-86.388451 -10.164467 -0.93893111
-85.319298 -10.129806 -0.95111054
-81.656746 -10.000065 -1.0651934
-79.369164 -10.079389 -0.92415243
-75.33728 -10.081413 -1.1615756
-74.784935 -10.017321 -1.175676
-73.313629 -10.153944 -1.1784413
-72.74015 -10.133369 -1.1869564
-68.793457 -10.18702 -1.0832999
-66.835098 -10.083434 -1.1375285
-59.509014 -10.003384 -0.90796101
-50.219509 -10.168155 -1.0442072
-48.492908 -9.9585629 -0.93164104
-48.253937 -10.12879 -1.0103712
-47.378349 -9.9674978 -1.1731517
-46.619469 -9.934412 -0.98620176
-46.45079 -9.9026394 -0.90509444
-46.144714 -10.096881 -1.0410315
-45.88644 -9.9376917 -1.172712
-44.8792 -10.198473 -1.1108081
-43.380203 -9.9547939 -1.0977211
-41.88443 -9.9963722 -1.1475947
-40.815865 -9.9817371 -1.1893502
-40.588051 -10.106986 -0.90484017
-40.294281 -9.9918451 -1.1725175
-39.45993 -9.9372702 -1.0828466
-38.596169 -10.092241 -1.0410117
-38.067612 -10.114123 -0.97327548
-37.75597 -9.9085236 -0.99105793
-37.103516 -10.05079 -1.089992
-35.865658 -9.9892502 -1.113788
-34.791832 -10.189703 -1.1522818
-34.495224 -9.9595385 -1.0925648
-33.607742 -10.09727 -1.0629518
-33.510368 -10.087516 -1.1468835
-33.154358 -10.028187 -1.0350537
-32.87841 -9.9934301 -1.1370682
-32.626675 -10.170314 -1.1318766
-32.189705 -10.173388 -0.91028398
-31.256201 -10.1992 -1.0103135
-30.917433 -9.9374781 -0.98055643
-30.717237 -10.07478 -1.0315497
-30.109367 -10.064408 -1.1403984
-29.859941 -10.020761 -0.98488647
-29.540623 -10.098211 -1.0151694
-29.294128 -10.114023 -1.0194237
-28.849859 -9.9652634 -0.99760133
-28.682556 -10.005585 -1.0964946
-27.652452 -9.9442406 -1.0707574
-27.392485 -10.081802 -0.99012911
-27.163548 -10.073911 -0.97492594
-26.952673 -10.009532 -0.94808412
-26.516039 -10.068376 -1.041602
-26.241535 -10.054827 -1.0443941
-26.031626 -10.018694 -0.97036827
-25.575798 -9.9674473 -0.96587116
-25.387812 -10.071761 -0.96519285
-25.043404 -10.056304 -0.9048937
-24.707758 -9.9188566 -1.0263619
-24.37611 -10.187218 -0.91612285
-24.122265 -10.106951 -0.93382192
-23.451008 -10.10673 -0.96817964
-22.877573 -10.092752 -0.97814697
-22.797888 -9.92449 -0.94650656
-22.232252 -10.095488 -1.145704
-21.002815 -10.136388 -0.98653418
-20.355387 -9.9100933 -0.99511331
-19.936775 -10.082779 -1.1410832
-18.292582 -10.163628 -0.90721971
-17.06382 -10.0359 -1.1269546
-16.662304 -10.104313 -1.0087434
-15.18478 -9.9312124 -0.95186728
-14.870431 -10.164588 -1.0304085
-14.022121 -9.9286642 -0.94361335
-98.987236 -9.6338005 -0.96385127
-95.98175 -9.8012943 -1.0470695
-95.516724 -9.7082233 -1.0708637
-90.131081 -9.7333069 -0.98395622
-88.839539 -9.7915325 -0.92841303
-87.303596 -9.7684412 -1.1150417
-82.870972 -9.7540932 -0.96854544
-81.483925 -9.7265997 -1.0502425
-79.890633 -9.8134441 -0.95608896
-76.25885 -9.8759089 -1.1440803
-75.432449 -9.8982773 -0.94272941
-75.176445 -9.6393356 -0.98088384
-74.977036 -9.8521185 -1.1581798
-73.318741 -9.7352343 -0.98743933
-72.36776 -9.6352434 -1.1933566
-70.111946 -9.818511 -0.92400318
-65.327858 -9.7568417 -1.0331422
-53.287628 -9.6518602 -0.98343003
-48.652637 -9.7834568 -0.98629618
-46.458141 -9.8914232 -0.92610455
-45.147877 -9.7366142 -1.1084442
-44.596107 -9.7897711 -1.0865595
-44.386536 -9.6023664 -0.97885579
-40.349079 -9.7942009 -1.1369212
-40.059933 -9.6792269 -1.0215458
-39.13464 -9.8223743 -1.1859769
-38.760948 -9.6958904 -1.0454911
-37.878052 -9.6970387 -1.1000961
-37.747509 -9.7851295 -1.0718166
-37.100082 -9.7788029 -1.1533518
-36.741394 -9.7984514 -0.96651763
-36.141716 -9.62852 -0.92071152
-35.893093 -9.7995148 -1.0362574
-35.6343 -9.7385941 -1.0469115
-35.253307 -9.7206888 -1.0891334
-34.831772 -9.7331295 -0.96323943
-34.671589 -9.6371698 -1.0079532
-34.232658 -9.7555819 -1.1336441
-34.123627 -9.7386179 -1.1573271
-33.689724 -9.8188086 -1.0021069
-33.421032 -9.8372383 -1.0050786
-33.127304 -9.8481598 -0.96669495
-32.838753 -9.7168045 -1.1042898
-32.659996 -9.7877865 -1.1208825
-32.157982 -9.6677599 -1.0696819
-31.967924 -9.6773996 -1.0868937
-31.66662 -9.7194042 -1.1134454
-30.798037 -9.6635046 -1.1922828
-30.515497 -9.6849566 -1.1482681
-30.262808 -9.8100576 -1.067536
-29.606869 -9.7005301 -0.98947167
-29.306629 -9.6246052 -1.1109226
-28.905005 -9.6636772 -1.0785987
-28.667017 -9.7846222 -1.0383825
-28.312889 -9.7454691 -0.94262731
-28.067211 -9.6770458 -1.0287725
-27.820864 -9.7352486 -1.0544653
-26.851166 -9.7451477 -0.97767425
-26.595617 -9.7368317 -1.0599773
-26.246206 -9.8232851 -0.9875347
-25.642727 -9.8512707 -0.93983877
-25.443338 -9.7099857 -0.91866839
-25.052067 -9.8527994 -0.99526489
-24.847836 -9.8362474 -1.0246669
-24.501974 -9.8373318 -1.1034662
-24.227077 -9.7005396 -0.99019539
-23.831764 -9.7239571 -0.95750916
-23.466425 -9.7449312 -1.0183018
-23.390337 -9.7762403 -0.90193444
-21.234936 -9.7613621 -1.1858633
-20.767017 -9.6881866 -0.98554718
-20.676666 -9.7550144 -1.0199687
-18.924902 -9.6118965 -0.9122746
-13.778768 -9.8792515 -1.0603327
-95.699684 -9.5485945 -0.98969626
-94.920135 -9.3317118 -1.0511205
-92.339371 -9.57195 -0.93236035
-90.249855 -9.4493561 -1.1149069
-88.982254 -9.4622765 -1.0055631
-88.512932 -9.3569269 -1.0860398
-87.765724 -9.4505777 -1.0371568
-87.173119 -9.4304733 -0.96300828
-86.827118 -9.4650278 -0.91676164
-81.606598 -9.5400963 -1.0243201
-81.592438 -9.5717182 -1.0337645
-79.841652 -9.3511648 -0.9551025
-79.687675 -9.5151548 -1.0080557
-74.713989 -9.4845562 -1.1469109
-73.377625 -9.5123186 -1.06045
-71.102921 -9.3685484 -0.98581725
-70.91423 -9.5404596 -1.0665424
-55.668598 -9.3366747 -1.0888551
-54.672882 -9.3293867 -0.90744466
-53.63839 -9.5146542 -1.082031
-51.955524 -9.3789864 -0.95618224
-49.70071 -9.4520254 -0.91246152
-46.852608 -9.3886662 -0.99253118
-46.648918 -9.4348278 -1.0014408
-46.403027 -9.4970217 -1.0984677
-40.114349 -9.4692678 -0.9735989
-39.787617 -9.307519 -1.1551077
-39.57436 -9.5815744 -1.0985929
-38.405594 -9.4008703 -1.1228372
-38.273853 -9.399436 -1.0559582
-37.915417 -9.5511904 -1.0656993
-37.793949 -9.3108702 -0.96452338
-37.184452 -9.3404579 -0.97438252
-36.386471 -9.4753351 -0.92090929
-36.082916 -9.5707264 -1.0365226
-35.899639 -9.3685255 -1.0194447
-35.425732 -9.331358 -0.93076491
-34.563503 -9.4780493 -1.0926832
-34.382656 -9.3907461 -0.98544544
-33.452705 -9.5139694 -1.1828595
-32.496876 -9.4715538 -1.0875256
-32.252083 -9.4413967 -1.1721683
-32.023849 -9.5926466 -1.0631022
-31.719177 -9.5925674 -1.0904922
-30.999166 -9.4069414 -1.0629619
-30.618458 -9.4833546 -1.0714685
-30.306164 -9.4792728 -1.1754515
-30.176798 -9.4388237 -1.1023818
-29.93087 -9.4667263 -1.1935186
-29.198544 -9.4469061 -1.1417102
-29.082745 -9.3428631 -1.0963918
-28.711319 -9.5344162 -1.0973241
-28.330179 -9.4102402 -1.0301269
-28.039417 -9.4779263 -1.0058713
-27.734367 -9.3987894 -1.0642675
-27.461321 -9.3523273 -1.0552816
-27.238285 -9.313694 -1.1354731
-26.721909 -9.3817883 -1.0133594
-26.55777 -9.5168419 -0.97271216
-26.306461 -9.5082111 -0.949498
-25.726902 -9.4293118 -0.93466651
-25.388308 -9.444376 -0.9285205
-24.834087 -9.4679585 -0.99470508
-24.315285 -9.4286871 -0.94697362
-24.138727 -9.4064322 -0.9949407
-23.925655 -9.3539124 -0.99963403
-23.314873 -9.3220196 -0.9672429
-22.609718 -9.4394617 -0.98530239
-21.770664 -9.3034325 -1.1380495
-21.359846 -9.3693485 -0.98796916
-20.832716 -9.4051571 -1.1127287
-19.649542 -9.557848 -0.98731834
-16.960819 -9.4343834 -0.98175049
-13.938114 -9.4613075 -1.0065738
-12.842955 -9.3566961 -1.015076
-11.729294 -9.4275932 -1.045195
-86.599312 -9.2163458 -1.0457155
-80.168457 -9.268013 -1.0333571
-79.942177 -9.2719746 -1.0868322
-76.634743 -9.0636473 -1.0283622
-73.337105 -9.1083469 -1.1880304
-71.111443 -9.1498089 -0.96601719
-69.588516 -9.1484537 -1.0798599
-45.151535 -9.1027546 -1.0886843
-43.027321 -9.1786489 -1.1322894
-38.461983 -9.122901 -1.0635874
-37.835144 -9.2177057 -1.0526252
-36.734894 -9.1264782 -1.062202
-36.273685 -9.2374897 -1.1674545
-35.542107 -9.2373266 -1.1279951
-34.558033 -9.1272974 -1.0175344
-34.330536 -9.2417402 -0.9378131
-32.706482 -9.225769 -0.95723146
-32.159363 -9.2905779 -0.92246014
-31.871191 -9.2945375 -0.9890067
-31.604342 -9.2193899 -1.1204762
-31.058689 -9.1018867 -1.1889716
-30.353724 -9.0588732 -1.064647
-30.163191 -9.0962534 -1.1540686
-29.789183 -9.167695 -1.1818342
-28.606487 -9.1753769 -1.0499383
-28.357943 -9.223031 -1.0937095
-27.746262 -9.1887455 -0.95899844
-27.428715 -9.0961514 -1.1287023
-27.154669 -9.1753111 -1.1350229
-26.854013 -9.1038351 -1.1373805
-26.123728 -9.1995935 -1.1777893
-25.595526 -9.1495066 -1.0446318
-25.311031 -9.2385578 -1.0732137
-25.113152 -9.2866011 -1.1467729
-24.543785 -9.0885267 -0.92926353
-24.120419 -9.2107258 -0.98758382
-23.921806 -9.2525434 -0.9828558
-23.137468 -9.2876101 -0.99853736
-23.030245 -9.2697515 -1.0035309
-21.739574 -9.062562 -1.0060136
-21.417189 -9.1614285 -1.1600206
-20.143053 -9.172122 -0.93185335
-19.099289 -9.1835442 -1.0777133
-18.191528 -9.1527271 -0.95782846
-17.993067 -9.1986752 -0.98411036
-17.515541 -9.1134453 -1.0461892
-16.372049 -9.2522755 -1.0791962
-16.143112 -9.2593927 -1.0453883
-15.471235 -9.2480545 -1.059173
-14.20491 -9.0327845 -1.1405337
-98.396698 -8.9374752 -0.93042791
-96.807709 -8.8747549 -1.0062759
-88.789375 -8.9002914 -0.95254081
-82.568672 -8.8760042 -0.93589491
-82.393013 -8.9327278 -1.1957327
-81.460716 -8.8986082 -1.0204071
-79.67939 -8.7283001 -1.0872146
-76.779442 -8.7433538 -1.0936532
-76.161072 -8.8037338 -0.94147021
-73.351944 -8.8704109 -1.100908
-72.950943 -8.9155407 -1.1792063
-69.300499 -8.7842283 -0.97109389
-62.309471 -8.7866364 -0.90538883
-52.091702 -8.8107567 -1.1175244
-46.402756 -8.8063898 -1.0799991
-45.155876 -8.9501944 -1.1398106
-43.850407 -8.8451405 -1.0486429
-43.722244 -8.8033524 -0.97440839
-38.129749 -8.9428158 -1.1951457
-38.005959 -8.9330606 -0.9215498
-31.971775 -8.9987907 -0.95763731
-31.502747 -8.9575624 -1.1632506
-29.481073 -8.7087317 -1.0098318
-29.234068 -8.9337444 -1.1866046
-28.174017 -8.8536987 -1.1980088
-27.74538 -8.8986092 -1.0526817
-27.121603 -8.9607134 -1.1275676
-26.867481 -8.8735285 -1.1457906
-25.897949 -8.8608236 -0.98176813
-25.504841 -8.8062 -1.1144419
-25.473133 -8.7790833 -1.0563082
-24.988796 -8.984643 -1.0303422
-24.77663 -8.953167 -1.0853963
-24.515469 -8.8681288 -1.1712198
-24.14147 -8.8358307 -1.0249327
-22.805845 -8.7400398 -1.016404
-21.715616 -8.9714479 -1.050773
-21.03112 -8.7412071 -1.1965442
-20.863018 -8.8147774 -1.018768
-19.226791 -8.872098 -1.1754129
-19.065302 -8.940587 -1.1625662
-18.724632 -8.7625284 -1.0732493
-18.085556 -8.8989315 -1.1349456
-17.543142 -8.8803492 -1.0506443
-12.201966 -8.7478514 -1.1644578
-98.978111 -8.6906443 -0.90148884
-96.081871 -8.526475 -1.056707
-95.852577 -8.5065823 -1.1875401
-94.854767 -8.5714531 -1.1757786
-94.284561 -8.6377201 -1.0116922
-90.462791 -8.5734434 -0.96104085
-90.148331 -8.5438967 -0.94867969
-88.356926 -8.5970364 -0.9875468
-88.01812 -8.5432167 -1.108678
-80.130333 -8.6572943 -0.95134813
-79.666473 -8.6953506 -1.0564288
-78.767693 -8.522522 -0.92593497
-76.964096 -8.5256014 -1.0505533
-76.548279 -8.4645061 -0.97233313
-75.19429 -8.5059004 -1.1595927
-74.668488 -8.4060917 -1.1719283
-74.125725 -8.444623 -1.156808
-72.287254 -8.5452194 -0.94200045
-62.384155 -8.6738014 -0.97321707
-57.622936 -8.4353657 -1.1212155
-49.980186 -8.4248304 -1.1975386
-38.28458 -8.4052353 -1.1483543
-28.718506 -8.5043335 -1.1283729
-28.46073 -8.5611248 -1.1171275
-28.13867 -8.4867907 -1.1533515
-27.829006 -8.5073147 -1.1616397
-27.168638 -8.6718616 -1.1907439
-26.505436 -8.5609741 -1.1299624
-26.285847 -8.5677719 -1.0683899
-26.054089 -8.4194727 -0.98113793
-24.927935 -8.4389658 -1.1512721
-24.761852 -8.5631704 -1.1893629
-24.136208 -8.6251898 -1.0859312
-23.858107 -8.6089115 -1.0013356
-22.466629 -8.6242313 -1.0420105
-20.778961 -8.4403811 -1.1221557
-20.318291 -8.4215126 -1.0562873
-20.018572 -8.4818573 -0.93354756
-19.656664 -8.4744177 -1.0468158
-19.007814 -8.5136175 -0.98544341
-18.844604 -8.4737358 -1.0165617
-18.490852 -8.6719551 -1.1766888
-18.114798 -8.5084877 -1.0406953
-17.773218 -8.5254564 -1.0353823
-17.551323 -8.5593138 -1.1067986
-16.468229 -8.5685463 -1.0567179
-15.38352 -8.5666285 -0.91625398
-15.163887 -8.5433512 -1.1064224
-14.899884 -8.5048609 -1.1395196
-94.59713 -8.2888689 -1.1109734
-91.004784 -8.1720514 -0.92227268
-88.263512 -8.3229198 -1.0843459
-88.027916 -8.3652983 -0.90748632
-87.813782 -8.2164688 -1.1098099
-87.588364 -8.3359127 -1.1153883
-87.286087 -8.1217909 -0.9183349
-86.800079 -8.1412058 -1.1253774
-81.789085 -8.1360102 -1.1666404
-78.828384 -8.3129873 -0.91584378
-74.118523 -8.1041117 -1.1683472
-73.657112 -8.2878189 -1.0048021
-72.244804 -8.1581659 -1.0087229
-70.378372 -8.133029 -0.92868406
-69.247345 -8.2461166 -1.0414907
-53.442402 -8.347435 -0.92495006
-49.816669 -8.3817062 -1.0230048
-41.500679 -8.2870064 -0.95754367
-39.637733 -8.1279373 -1.1583517
-39.56636 -8.1359901 -1.1319098
-38.642879 -8.2250614 -0.95146489
-38.366463 -8.1528769 -1.0871813
-36.604881 -8.3239222 -1.00466
-35.915371 -8.1408558 -1.1328259
-33.389324 -8.373786 -1.0652822
-31.969944 -8.2315979 -1.18492
-29.310755 -8.2094936 -1.020045
-28.681108 -8.3270702 -1.138083
-28.413273 -8.2889442 -1.194051
-28.01725 -8.2458792 -0.96646613
-27.713091 -8.1467667 -1.1314892
-27.485882 -8.1180267 -1.1666589
-26.21534 -8.298111 -1.1136092
-26.01465 -8.336421 -1.0098952
-25.640808 -8.1612759 -1.1380399
-24.760178 -8.1640472 -1.1242111
-24.346161 -8.3507833 -1.1130745
-24.188473 -8.3777285 -1.1139494
-23.787657 -8.1174221 -0.97495008
-23.439812 -8.1320629 -1.0466982
-22.894117 -8.3768501 -1.0661851
-22.79607 -8.354948 -1.0482606
-22.398468 -8.1455679 -0.97898579
-21.791571 -8.1769714 -1.1155411
-20.842972 -8.2260437 -1.1575034
-20.389833 -8.1046276 -1.1051065
-19.591476 -8.2760811 -1.0506761
-19.496775 -8.3457298 -1.1994468
-18.989874 -8.2182169 -1.0995507
-18.665077 -8.1834755 -1.0590754
-18.453787 -8.2880831 -1.0760579
-17.751772 -8.340642 -1.1973771
-17.586945 -8.3191404 -1.0460705
-17.234337 -8.1979675 -0.93449694
-16.450691 -8.1983271 -1.0180855
-92.393852 -7.999187 -0.94565922
-89.275864 -8.0361576 -1.0202157
-88.95607 -7.960247 -0.91756976
-87.864952 -8.0846539 -1.1695544
-85.753593 -8.0747728 -1.1619118
-85.467125 -7.8006997 -1.1639229
-79.904358 -8.0819864 -0.9440462
-76.085709 -8.0372505 -1.1909103
-74.617958 -7.8752747 -1.1610748
-72.123199 -7.9418635 -1.0959154
-64.18605 -8.0069599 -0.96707892
-63.541576 -7.8372746 -1.0361978
-61.753716 -7.9535656 -0.9759593
-60.951778 -7.8987474 -0.96140605
-58.368214 -7.8595119 -1.0634335
-54.674557 -7.9306645 -0.95854056
-40.975239 -8.0470638 -1.1818072
-37.264973 -7.9147701 -1.0067861
-35.959698 -7.9098506 -1.0511303
-29.895599 -7.9525757 -1.0694087
-29.278013 -7.8783054 -1.0966941
-28.554562 -7.9134698 -1.1894629
-25.698496 -7.9285378 -1.0586146
-25.293167 -7.9520683 -1.0860618
-25.103071 -8.0688477 -1.1675664
-24.750549 -7.9834542 -1.1640545
-24.508869 -7.958354 -1.153397
-24.129827 -8.022315 -1.1673433
-23.761307 -7.823122 -1.0026401
-23.57169 -7.9083428 -1.0736954
-22.78731 -7.994884 -1.0360991
-22.206619 -8.0107393 -1.0689653
-21.981901 -7.9401779 -1.0254709
-21.801702 -7.9228673 -1.0112451
-20.867416 -8.0224209 -1.1507527
-20.526079 -8.0132713 -1.1319206
-19.541967 -7.9844074 -1.1146758
-19.097218 -7.936183 -1.1865917
-17.709785 -8.002039 -1.1655014
-17.670849 -8.0192595 -1.0458664
-17.258469 -8.0926399 -0.94641447
