# .PCD v0.7 - Point Cloud Data file format
VERSION 0.7
FIELDS x y z
SIZE 4 4 4
TYPE F F F
COUNT 1 1 1
WIDTH 471
HEIGHT 1
VIEWPOINT 0 0 0 1 0 0 0
POINTS 471
DATA ascii
512831.5 5403781.5 359.32999
512829.41 5403780 358.64999
512829.41 5403781 360.04001
512828.88 5403780.5 358.92001
512827.31 5403779.5 359.06
512826.78 5403780 359.44
512825.19 5403776.5 358.73001
512825.19 5403778 359.01999
512824.62 5403777 358.87
512823.16 5403755 359.41
512823.06 5403775 359.04999
512823.06 5403776.5 359.39001
512822.5 5403777 359.45999
512822.5 5403775.5 359.54999
512822.47 5403774.5 359.10001
512822.47 5403773 358.19
512822.38 5403758.5 358.84
512822.34 5403757 358.97
512821.06 5403755 359.85001
512821.03 5403759 359.81
512820.97 5403773.5 359.51999
512820.34 5403771.5 358.35999
512820.28 5403759.5 358.89999
512818.94 5403754.5 359.32999
512818.94 5403756 358.70001
512818.94 5403757.5 359.44
512818.88 5403772 360.12
512818.25 5403770 358.98001
512818.16 5403756.5 359.57999
512818.12 5403755.5 358.70999
512816.84 5403754.5 359.81
512816.78 5403763.5 359.38
512816.75 5403768 358.51001
512816.75 5403769 359.22
512816.12 5403768.5 359.60001
512816.09 5403767 358.85999
512816.09 5403766 358.51001
512816.09 5403764.5 359.82999
512814.72 5403754 359.95001
512811.72 5403752 358.82001
512810.44 5403751.5 358.79999
512810.41 5403752.5 358.81
512809.56 5403750.5 358.72
512808.31 5403750 358.78
512808.28 5403751 358.70001
512807.44 5403750.5 358.73999
512807.41 5403749 358.75
512806.16 5403747 358.72
512806.16 5403748.5 358.67999
512806.16 5403749.5 359.59
512805.25 5403747.5 358.78
512805.25 5403746.5 358.76001
512804 5403745.5 358.70001
512804 5403747 359.01001
512803.06 5403746 359.10999
512803.06 5403744.5 358.78
512803.03 5403743.5 358.35999
512801.81 5403744 359.06
512800.84 5403742 358.98999
512799.62 5403741.5 358.88
512799.62 5403742.5 359.32999
512799.62 5403744 359.87
512798.69 5403741.5 359.78
512798.66 5403740.5 358.54999
512797.47 5403738.5 358.25
512797.47 5403740 359.37
512797.47 5403741 360.13
512796.47 5403740.5 359.97
512796.47 5403739 359.35999
512796.44 5403737.5 358.29999
512794.22 5403736.5 358.82999
512794.22 5403735 358.62
512793.09 5403733 358.38
512793.09 5403734.5 358.48001
512783.44 5403729.5 359.95999
512782.38 5403729 359.97
512781.28 5403728 359.91
512780.22 5403726.5 358.29999
512780.22 5403727.5 358.98001
512779.09 5403728 359.60999
512775.88 5403723.5 359.10001
512775.88 5403725 359.42001
512774.72 5403725.5 359.82999
512774.69 5403724 359.42001
512773.69 5403722.5 359.01001
512773.69 5403723.5 359.48999
512772.53 5403725 360.19
512772.53 5403724 359.67001
512772.5 5403722.5 358.85999
512771.53 5403722 359.17999
512771.53 5403723.5 359.76999
512770.38 5403724 360.20001
512770.34 5403722.5 359.75
512769.38 5403721 359.64999
512769.38 5403722 359.92999
512769.38 5403723.5 360.23999
512768.16 5403721 359.60999
512768.12 5403718.5 359.19
512767.19 5403721 359.66
512767.19 5403722 360.25
512765.97 5403721 360.26999
512765.97 5403719.5 360.03
512765.03 5403720.5 360.06
512763.78 5403719.5 358.81
512763.75 5403715.5 359.01001
512762.84 5403714 358.82001
512762.84 5403715.5 359.32999
512762.84 5403716.5 358.82999
512762.88 5403718 359.79001
512761.56 5403716.5 359.01999
512761.56 5403715.5 359
512761.53 5403714 358.75
512760.66 5403714 358.75
512760.66 5403715 358.94
512760.66 5403716.5 358.98001
512759.38 5403716.5 359.01001
512759.38 5403715.5 359.04999
512759.34 5403714 358.95999
512759.31 5403712.5 358.56
512758.44 5403711 358.84
512758.44 5403712.5 358.78
512758.47 5403713.5 358.91
512758.47 5403715 359.07999
512757.12 5403714 359.03
512757.12 5403712.5 359
512757.12 5403711 359.10001
512757.09 5403710 358.72
512756.25 5403711 358.81
512756.28 5403712 359.01001
512756.28 5403713.5 359.06
512754.94 5403712.5 359.16
512754.94 5403711 358.94
512754.91 5403710 358.75
512754.09 5403709.5 358.89001
512754.09 5403711 358.98001
512754.09 5403712 359.10999
512752.75 5403711 358.94
512752.72 5403709.5 358.95999
512752.69 5403708.5 358.79999
512751.88 5403708 358.89999
512751.88 5403709.5 358.95999
512751.91 5403711 358.98001
512750.53 5403708 359.01999
512750.53 5403707 358.85001
512749.72 5403706.5 358.81
512749.72 5403708 359.06
512748.34 5403707 359.04999
512748.31 5403705.5 358.85999
512747.53 5403704 358.92001
512747.53 5403705 359.07999
512747.53 5403706.5 359.14001
512747.56 5403709.5 359.91
512746.16 5403705 359.26999
512746.12 5403704 359.06
512745.38 5403702.5 358.84
512745.38 5403704 359.10001
512745.38 5403705 359.19
512743.97 5403704 359.06
512743.19 5403701 358.70001
512743.19 5403703.5 358.98001
512741.81 5403702.5 360.16
512741.75 5403699.5 358.57001
512741.03 5403699.5 358.66
512739.56 5403701 359.01999
512739.56 5403699.5 358.94
512739.53 5403698 358.60999
512738.84 5403698.5 358.92001
512738.84 5403699.5 358.76001
512737.38 5403699.5 359.03
512737.34 5403698 358.92999
512737.34 5403697 359.01999
512736.62 5403697 358.76999
512736.62 5403698 358.89001
512735.09 5403694 359.10999
512734.44 5403694 358.79999
512734.47 5403695.5 359.88
512732.97 5403696.5 360.37
512732.88 5403692.5 358.73999
512732.88 5403691.5 359.45001
512732.25 5403695.5 360.26999
512732.28 5403697 360.42001
512730.72 5403695.5 360.09
512730.66 5403692.5 359.20999
512730.62 5403691 358.76001
512730 5403691.5 358.84
512730.03 5403693 359.44
512730.03 5403695.5 360.37
512728.47 5403694 360.32001
512728.44 5403692.5 359.75
512728.41 5403691 359.20999
512728.38 5403690 358.85999
512727.78 5403690 358.97
512727.78 5403691.5 359.44
512727.81 5403693 359.94
512727.81 5403694 360.48999
512726.22 5403692.5 360.28
512726.19 5403691 359.72
512726.16 5403690 359.20001
512726.12 5403688.5 358.76999
512725.53 5403687.5 358.57999
512725.56 5403689 359
512725.56 5403690 359.48001
512725.59 5403691.5 359.94
512725.59 5403693 360.38
512724 5403691.5 360.10001
512723.97 5403690 359.64999
512723.94 5403688.5 359.23999
512723.91 5403687 358.73999
512723.34 5403687.5 358.98001
512723.34 5403689 359.42001
512723.34 5403690 359.84
512721.75 5403690 359.95999
512721.72 5403688.5 359.56
512721.69 5403687 358.97
512721.66 5403686 358.59
512721.09 5403685 358.59
512721.09 5403686.5 358.76001
512721.12 5403687.5 359.07999
512721.12 5403689 359.62
512719.47 5403687.5 359.26001
512719.44 5403686 359.19
512719.41 5403684.5 358.76999
512718.88 5403683.5 358.59
512718.88 5403685 359.01001
512718.88 5403686.5 359.28
512718.88 5403687.5 359.51001
512717.25 5403687.5 359.97
512717.22 5403686 359.57999
512717.19 5403684.5 359.28
512717.16 5403683.5 358.89999
512716.62 5403684 359.23001
512716.62 5403685 359.45001
512716.66 5403686.5 359.87
512715 5403686 360.03
512714.97 5403685 359.78
512714.94 5403683.5 359.41
512714.41 5403682.5 359.29001
512714.41 5403684 359.62
512714.44 5403685 360.01001
512714.44 5403686.5 360.23999
512712.78 5403686 360.54001
512712.75 5403685 360.17999
512712.72 5403683.5 359.91
512712.69 5403682 359.54001
512712.69 5403681 359.17999
512712.66 5403679.5 359.06
512712.19 5403680 359.17001
512712.19 5403681.5 359.51999
512712.19 5403683 359.79999
512712.22 5403684 360.14001
512712.22 5403685.5 360.48999
512710.53 5403683.5 360.45001
512710.5 5403682 360.04001
512710.47 5403681 359.70999
512710.44 5403679.5 359.34
512710.41 5403678 359.01999
512709.94 5403677.5 358.69
512709.94 5403679 359.28
512709.97 5403680 359.60001
512709.97 5403681.5 360
512710 5403683 360.32001
512708.28 5403682 360.47
512708.25 5403681 360.07999
512708.16 5403676.5 358.92999
512708.12 5403675.5 359.13
512707.69 5403675 358.89999
512707.72 5403676.5 358.92001
512707.72 5403677.5 358.92001
512707.75 5403681.5 360.35999
512705.94 5403677 359.38
512705.91 5403675.5 358.82001
512705.5 5403676.5 359.35001
512701.53 5403678 359.94
512701.5 5403676.5 359.07001
512701.03 5403675 359.03
512701.06 5403676 359.01999
512701.09 5403677.5 360.01999
512701.31 5403644 359.23999
512701.34 5403645 359.85999
512701.44 5403646.5 359.76001
512701.53 5403648 358.81
512702.09 5403650.5 359.82999
512702 5403648.5 358.76001
512701.94 5403647 359.54001
512701.84 5403645.5 360.04999
512701.84 5403644.5 359.32001
512703.5 5403645 359.10999
512703.56 5403646 359.85001
512703.62 5403647.5 359.69
512703.75 5403649 358.84
512704.78 5403667 358.94
512704.19 5403649 358.84
512704.09 5403647.5 359.70001
512704.03 5403646.5 359.92999
512704 5403645.5 359.09
512705.72 5403645.5 359.01999
512705.75 5403647 359.75
512705.81 5403648 359.85001
512705.94 5403649.5 358.95999
512706.38 5403649.5 359.04999
512706.28 5403648.5 359.82001
512706.22 5403647 359.76001
512706.19 5403646 359.07999
512707.91 5403646.5 358.92999
512707.97 5403647.5 359.72
512708.03 5403649 359.85999
512708.12 5403650.5 359.03
512708.59 5403651.5 359.32001
512708.53 5403650.5 359.16
512708.44 5403649 359.92001
512708.41 5403648 359.60999
512708.38 5403646.5 359.10999
512710.09 5403647 358.82001
512710.12 5403648.5 359.56
512710.19 5403649.5 359.95001
512710.31 5403651 359.04999
512710.69 5403651 359.26001
512710.59 5403649.5 359.98999
512710.56 5403648.5 359.63
512710.53 5403647.5 358.81
512712.28 5403648 358.79001
512712.31 5403649 359.62
512712.34 5403650.5 360.04999
512712.47 5403652 359.10999
512713.22 5403664.5 358.79999
512713.22 5403665 359.06
512712.81 5403651.5 359.42999
512712.72 5403650.5 360.25
512712.69 5403649 359.48001
512712.69 5403648 358.76001
512714.41 5403648.5 358.70999
512714.47 5403650 359.45999
512714.53 5403651.5 359.75
512714.62 5403652.5 359.23999
512714.94 5403652.5 359.04001
512714.88 5403651 359.48999
512714.84 5403650 359.31
512833.03 5403780 359.57001
512822.38 5403755.5 359.97
512818.94 5403752 359.17999
512818.12 5403754 359.88
512816.84 5403752 358.82001
512800.72 5403728.5 358.32001
512799.69 5403729.5 359.10001
512799.69 5403730.5 359.92999
512798.44 5403716.5 358.42999
512798.44 5403715 360.01001
512798.41 5403714 359.45001
512798.41 5403712.5 359
512797.56 5403716 360.14999
512797.53 5403717 358.70999
512796.38 5403731 359.22
512796.19 5403709.5 358.26999
512795.31 5403720 358.41
512795.31 5403726.5 359.26999
512795.31 5403729 359.32001
512794.22 5403733.5 359.03
512794.16 5403729.5 358.62
512793.97 5403709.5 358.51999
512793.16 5403709 358.88
512791 5403706.5 360.23999
512787.44 5403704.5 359.76001
512786.69 5403702.5 358.44
512785.25 5403701.5 358.95999
512784.56 5403702.5 359.16
512783.41 5403728 359.17001
512783.28 5403716 358.45001
512783.28 5403715 360.13
512783.16 5403704 359.47
512782.41 5403714.5 359.64001
512781.25 5403725.5 360.28
512781.12 5403715 359.57001
512781.03 5403705.5 360
512780.28 5403706.5 360.04001
512780.22 5403719.5 358.42001
512780.22 5403721 358.51001
512779.09 5403726.5 359.64001
512779.03 5403721.5 359.07001
512778.97 5403717.5 359.20999
512778.88 5403708 360.22
512778.06 5403717 358.53
512778.06 5403721 358.56
512778.06 5403722.5 359.67999
512778.06 5403723.5 360.23999
512776.88 5403724 358.70999
512776.88 5403722.5 359.53
512776.84 5403721.5 359.48999
512776.81 5403717.5 358.79999
512776.72 5403710.5 359.26001
512775.91 5403711.5 359.35001
512775.91 5403714.5 359.64999
512775.91 5403715.5 359.98999
512775.88 5403721 359.87
512775.88 5403722 359.95001
512774.69 5403722.5 359.85999
512774.66 5403721 359.85999
512774.62 5403720 358.95999
512774.56 5403713.5 359.38
512773.69 5403721 359.17999
512771.53 5403719.5 358.97
512767.19 5403717 359.67001
512765.94 5403717 359.87
512765.03 5403717 360.16
512765.03 5403719.5 360.07999
512758.47 5403708.5 359.38
512758.47 5403710 359.79001
512757.09 5403708.5 359.23999
512757.06 5403707 359.51999
512756.25 5403709.5 358.84
512754.09 5403708 359.35001
512752.62 5403701.5 358.64001
512750.5 5403705.5 359.38
512750.47 5403704 358.84
512749.72 5403704 359.20999
512749.72 5403705.5 359.38
512748.25 5403700 358.84
512748.25 5403699 359.48999
512747.53 5403699 359.39999
512743.97 5403702.5 360.29999
512743.88 5403697 358.62
512743.88 5403696 359.23001
512743.22 5403696 360.35001
512743.22 5403697 360.26999
512741.75 5403698.5 360.37
512741.69 5403696 359.82999
512741.69 5403694.5 359.67999
512741.66 5403693 359.95001
512741.62 5403690.5 359.23999
512741.03 5403692 359.47
512741.03 5403694.5 359.89001
512741.03 5403695.5 359.53
512741.03 5403697 360
512739.53 5403697 360.10001
512739.53 5403695.5 360.29999
512739.5 5403694.5 360.10001
512739.41 5403689 359.85999
512738.81 5403689 358.85999
512738.84 5403693 359.60001
512738.84 5403695.5 359.97
512738.84 5403697 360.10001
512737.28 5403693 358.87
512737.25 5403691.5 358.60999
512736.62 5403680 358.51999
512736.62 5403694 358.79999
512735.12 5403695.5 360.10999
512735.09 5403692.5 359.29001
512734.59 5403659.5 358.64999
512732.88 5403690 360.12
512732.84 5403688.5 359.63
512732.75 5403682 360.29999
512732.25 5403682.5 360.29001
512732.25 5403689 359.81
512732.25 5403690 359.89999
512717.16 5403682 360.10999
512716.88 5403666 359.67001
512716.62 5403680 360.37
512716.62 5403682.5 359.73999
512714.88 5403679.5 359.62
512714.88 5403678 359.81
512714.62 5403663.5 360.20001
512714.34 5403663 360.04999
512714.38 5403680 358.60999
512712.62 5403677 359.53
512712.12 5403665 358.88
512708.22 5403678.5 360.56
512705.91 5403674 359.28
512705.44 5403665 358.72
512705.44 5403666.5 358.98001
512705.5 5403674 359.54001
512705.5 5403675 359.89999
512701.47 5403674 359.89001
