# .PCD v0.7 - Point Cloud Data file format
VERSION 0.7
FIELDS x y z
SIZE 4 4 4
TYPE F F F
COUNT 1 1 1
WIDTH 1466
HEIGHT 1
VIEWPOINT 0 0 0 1 0 0 0
POINTS 1466
DATA ascii
-61.60326 75.651184 -0.6038785
-61.361248 75.799332 -0.60243261
-54.43684 75.743355 -0.54464865
-53.312599 75.758232 -0.55447692
-52.34404 75.660416 -0.59086096
-47.503521 75.958809 -0.71496147
-46.320236 75.84861 -0.78748411
-45.682823 75.664673 -0.65162033
-44.373016 75.814346 -0.78163189
-42.979912 75.722809 -0.99235892
-39.803082 75.687248 -0.51152819
-38.668709 75.744858 -0.57859951
-38.359837 75.630272 -0.55570918
-37.993313 75.755058 -0.68564242
-37.225983 75.684029 -0.55175644
-36.939907 75.601921 -0.59500605
-35.558369 75.91349 -0.69520354
-32.134789 75.61599 -0.76212364
-31.539951 75.656204 -0.68994254
-31.402098 75.679893 -0.7887978
-30.932476 75.868073 -0.78025615
-30.386629 75.781456 -0.64025927
-29.686239 75.731834 -0.63230246
-29.282442 75.881065 -0.71087795
-28.715513 75.780174 -0.65564317
-28.186024 75.825943 -0.72347349
-27.983662 75.953636 -0.78716451
-27.253426 75.91983 -0.68047303
-26.666601 75.612587 -0.58850032
-26.21983 75.77372 -0.66343296
-25.718683 75.860947 -0.61914426
-25.219828 75.7015 -0.66843551
-24.859266 75.677361 -0.61429268
-24.348127 75.91391 -0.64973783
-23.613796 75.990532 -0.57391578
-23.303976 75.755577 -0.5908227
-22.713491 75.837349 -0.70350677
-21.708015 75.711472 -0.5179255
-21.217531 75.759041 -0.68178874
-20.683447 75.617393 -0.57577676
-20.09716 75.504402 -0.53482378
-19.828865 75.703659 -0.64474857
-19.055704 75.862473 -0.6240555
-17.523041 75.964691 -0.56609857
-16.644196 75.897964 -0.65930665
-16.266651 75.75177 -0.66089833
-13.804754 75.942101 -0.65462428
-13.042919 75.69265 -0.66607261
-12.954618 75.815125 -0.75262368
-7.1209764 75.787476 -0.85572708
-6.0361037 75.955368 -0.50734907
-5.7094355 75.794998 -0.59240711
-5.2178273 75.646706 -0.52867657
-4.2342939 75.502182 -0.87283158
1.7182125 75.783646 -0.80350232
2.3025086 75.69442 -0.78658259
2.5739796 75.798561 -0.87829763
13.891739 75.770409 -0.80968332
14.543186 75.923912 -0.6160717
-90.873672 76.204979 -0.58026159
-90.321228 76.43898 -0.8326925
-89.286591 76.278786 -0.62713182
-88.743362 76.175583 -0.62436783
-88.228615 76.329765 -0.64378536
-87.843002 76.252106 -0.63503003
-87.276878 76.220657 -0.6007669
-86.789558 76.221581 -0.63214034
-85.112099 76.428757 -0.56871438
-79.890327 76.124771 -0.55093098
-79.332634 76.251785 -0.92933559
-78.381523 76.315384 -0.65485775
-76.878441 76.147568 -0.88023281
-75.858841 76.050896 -0.71107841
-73.47113 76.175011 -0.51653194
-69.637825 76.380806 -0.57216007
-69.12442 76.23542 -0.57904088
-68.524178 76.102638 -0.53927571
-68.389671 76.317444 -0.54556042
-63.710487 76.277489 -0.55386484
-62.111313 76.366417 -0.57892632
-61.552124 76.278595 -0.624663
-61.168053 76.381508 -0.70214427
-55.084518 76.085518 -0.56919378
-54.814507 76.383698 -0.59189963
-54.025742 76.296524 -0.53080112
-53.115601 76.25309 -0.944686
-50.984268 76.464844 -0.96977341
-47.226669 76.284187 -0.71700841
-46.703915 76.184029 -0.83028543
-46.244232 76.078552 -0.81258619
-45.732121 76.339912 -0.85882634
-45.439835 76.197205 -0.78720331
-44.932407 76.371246 -0.81893188
-39.150776 76.424683 -0.64911866
-38.919472 76.438499 -0.67196918
-38.376766 76.285408 -0.51888824
-37.329613 76.272308 -0.63782036
-36.26627 76.350212 -0.62770379
-35.795322 76.443916 -0.90849012
-34.92231 76.416885 -0.79242176
-33.678177 76.124496 -0.67828631
-33.305367 76.322121 -0.88132799
-32.821239 76.292137 -0.74643487
-32.301826 76.139618 -0.82602346
-30.869654 76.490936 -0.80625421
-30.328167 76.237144 -0.78224027
-29.5361 76.397408 -0.60337168
-29.300772 76.153015 -0.65823519
-28.66861 76.174568 -0.71930301
-28.388071 76.261925 -0.80496812
-27.869286 76.16185 -0.6771422
-26.716063 76.227348 -0.57264143
-26.37343 76.318237 -0.6607123
-25.73554 76.155197 -0.71763009
-25.264168 76.073303 -0.696567
-24.696331 76.018005 -0.62950248
-24.317223 76.288437 -0.74436712
-23.721815 76.157227 -0.57158488
-23.210463 76.139816 -0.57696199
-22.78072 76.204048 -0.68043792
-22.418434 76.255653 -0.73657179
-21.586357 76.434685 -0.8499608
-21.304535 76.229347 -0.68513185
-20.724581 76.295639 -0.5760566
-20.155796 76.248024 -0.62783206
-19.556984 76.324738 -0.78677166
-19.300222 76.176727 -0.76583534
-18.679775 76.458832 -0.59158731
-18.122242 76.306458 -0.63215923
-17.810198 76.127083 -0.73103118
-16.782188 76.365372 -0.58145529
-16.297579 76.390457 -0.82793611
-15.983081 76.111923 -0.81095678
-15.261028 76.444138 -0.83424038
-14.174253 76.442154 -0.71314913
-13.849693 76.358765 -0.61279571
-13.256527 76.279808 -0.71606535
-12.975234 76.051193 -0.64574021
-5.7434959 76.190781 -0.69039702
-4.7427254 76.49733 -0.54601485
-4.1384444 76.460327 -0.55995035
1.1305164 76.295364 -0.63273221
2.1745839 76.344093 -0.84648067
2.516937 76.45462 -0.83681113
3.1824615 76.415161 -0.88510787
12.987051 76.183472 -0.77622288
13.178329 76.443611 -0.98860693
14.604767 76.152039 -0.85047585
-91.751289 76.662048 -0.86033547
-90.599976 76.557152 -0.60833001
-89.558884 76.811569 -0.70924878
-89.144279 76.780785 -0.74903089
-88.783363 76.808075 -0.70759082
-88.351898 76.740158 -0.72613096
-87.75013 76.70784 -0.71647418
-87.20224 76.597214 -0.64711738
-86.880943 76.744141 -0.82605827
-86.313644 76.946365 -0.81216627
-79.596825 76.89183 -0.62380165
-79.257607 76.836266 -0.66395652
-78.753662 76.659698 -0.65034342
-78.335136 76.598312 -0.52359921
-71.828865 76.822701 -0.53805095
-71.238953 76.814178 -0.52085066
-70.566406 76.626526 -0.53840005
-70.246719 76.732109 -0.53534651
-69.772163 76.61087 -0.53307819
-68.534096 76.956223 -0.50458467
-68.383575 76.740875 -0.53952438
-63.793015 76.783318 -0.73715258
-63.259789 76.709297 -0.63907421
-62.707615 76.762375 -0.74515897
-62.261101 76.719643 -0.61809993
-61.744648 76.555984 -0.56099319
-61.331264 76.629974 -0.64412761
-60.881329 76.646942 -0.89079034
-56.160732 76.763268 -0.62769812
-55.060982 76.609825 -0.57522368
-54.67662 76.568909 -0.58212525
-53.098854 76.867386 -0.5389545
-52.988434 76.802887 -0.59873819
-51.983681 76.944397 -0.56601471
-47.465347 76.606216 -0.83641481
-46.710629 76.694771 -0.83011049
-45.863823 76.693245 -0.87765628
-42.969673 76.811539 -0.76973969
-40.213402 76.796379 -0.67083037
-39.661255 76.890564 -0.56123531
-39.16124 76.864594 -0.61709732
-38.899227 76.682365 -0.6087628
-38.206318 76.61026 -0.51168448
-37.100552 76.640884 -0.59856892
-36.513012 76.84816 -0.63979471
-36.489365 76.834129 -0.67725372
-35.795628 76.513092 -0.79099983
-33.953999 76.885574 -0.86644113
-31.291952 76.786583 -0.74404019
-30.788782 76.866852 -0.75817734
-30.262457 76.730759 -0.81823134
-29.798767 76.692566 -0.66579658
-29.224697 76.686325 -0.70380461
-28.869843 76.752731 -0.69374323
-27.651529 76.996223 -0.76158971
-26.828955 76.671326 -0.66136312
-25.873905 76.654007 -0.72622395
-25.218235 76.781509 -0.61020488
-24.70739 76.857155 -0.51634383
-24.373896 76.752052 -0.71373844
-23.801632 76.665474 -0.57380414
-23.257872 76.733131 -0.60686469
-22.68232 76.843575 -0.56592798
-22.301006 76.858154 -0.67478102
-21.745232 76.710045 -0.66446364
-21.452024 76.75042 -0.57929361
-20.785332 76.80024 -0.58728951
-19.735868 76.841743 -0.64897639
-19.272976 76.677368 -0.66269404
-18.582634 76.932709 -0.60162681
-18.209663 76.770409 -0.56132239
-17.798998 76.648521 -0.62997168
-17.447178 76.658897 -0.63684499
-16.852116 76.807777 -0.84508026
-16.017944 76.527321 -0.68537503
-15.144978 76.813431 -0.64137405
-14.757451 76.796371 -0.75996453
-13.310017 76.923363 -0.7812826
-12.398893 76.889374 -0.66683733
-11.769341 76.803894 -0.72740251
-7.1879373 76.861862 -0.59530699
-4.8296323 76.688446 -0.57566601
-4.1739407 76.580025 -0.52675843
-3.8629825 76.657486 -0.54601818
1.9831541 76.678276 -0.82165974
2.7197521 76.619682 -0.86728853
3.1660237 76.595604 -0.87826711
12.809111 76.856476 -0.83162618
13.291393 76.69426 -0.79027021
-91.374252 77.469765 -0.91578817
-89.565788 77.211731 -0.88278884
-89.497398 77.126801 -0.80496901
-88.618195 77.248512 -0.77818578
-88.215271 77.219086 -0.73483914
-87.777351 77.114357 -0.79353017
-87.295433 77.267494 -0.77349758
-86.688606 77.13649 -0.8446908
-86.287354 77.266556 -0.74627864
-85.926208 77.434776 -0.7554397
-85.16188 77.346588 -0.90671968
-84.971466 77.395569 -0.8455649
-79.295158 77.245979 -0.64326823
-78.779305 77.203934 -0.75133139
-77.380623 77.302643 -0.53820717
-72.434875 77.062302 -0.54360473
-71.254364 77.112274 -0.62117845
-70.881248 77.028915 -0.51286346
-70.133026 77.098732 -0.51211876
-67.763458 77.266144 -0.53540492
-63.525604 77.307281 -0.56723589
-62.524044 77.470482 -0.507819
-62.080223 77.108894 -0.69611287
-61.252014 77.175377 -0.65997785
-59.798145 77.302307 -0.69053948
-54.182739 77.257652 -0.5517686
-52.475037 77.452271 -0.75062603
-47.494251 77.433975 -0.77325201
-46.823402 77.179131 -0.71234262
-46.347813 77.28038 -0.80475807
-45.944599 77.423851 -0.83889174
-45.468582 77.289474 -0.71734279
-41.969318 77.489716 -0.95153904
-40.505951 77.403374 -0.59145969
-39.835941 77.180115 -0.63655603
-39.138515 77.228249 -0.61073411
-38.613205 77.49157 -0.69796371
-38.143982 77.447342 -0.69772452
-37.783344 77.149429 -0.57600224
-37.076225 77.353828 -0.64133382
-35.842113 77.213455 -0.68794698
-34.336891 77.044563 -0.91437507
-31.311687 77.185852 -0.79029548
-30.629904 77.103279 -0.6787588
-30.160149 77.308556 -0.67470437
-29.666494 77.221695 -0.73648715
-29.157619 77.235786 -0.65731287
-28.281954 77.381256 -0.69372112
-27.047159 77.481934 -0.7598139
-26.733274 77.284874 -0.67229897
-26.290054 77.492523 -0.63503289
-25.844383 77.478043 -0.69157296
-25.223541 77.281464 -0.57661831
-24.760195 77.220825 -0.5838837
-24.368454 77.217674 -0.66970134
-23.782417 77.300438 -0.60048574
-23.293055 77.18737 -0.61387813
-22.840841 77.166077 -0.70145822
-22.237995 77.210075 -0.6085012
-21.656424 77.37001 -0.60681987
-21.203423 77.208153 -0.61785454
-20.72168 77.25148 -0.64228201
-20.340363 77.223328 -0.58001119
-19.747278 77.195702 -0.65866667
-19.213932 77.231125 -0.55044395
-18.818157 77.328804 -0.67530805
-18.25461 77.293236 -0.5267036
-17.79697 77.426247 -0.74633491
-17.160852 77.357834 -0.50153553
-16.794956 77.245682 -0.78787833
-16.438864 77.221458 -0.82338911
-14.859988 77.124222 -0.82848465
-13.555513 77.208572 -0.81823856
-13.259182 77.171806 -0.73270339
-12.679925 77.446671 -0.63738072
-12.341986 77.311768 -0.76403821
-7.2927876 77.494324 -0.54460537
-6.2026544 77.429344 -0.54364198
-4.8284364 77.404907 -0.56634092
-3.5594981 77.482735 -0.57926995
1.4392177 77.462791 -0.7751773
1.7198898 77.17749 -0.87671965
2.1241548 77.093178 -0.86762494
2.9046404 77.287476 -0.87187594
3.853127 77.078339 -0.87137073
4.222024 77.184532 -0.96975917
6.2738471 77.151054 -0.94376308
11.883113 77.349022 -0.9967618
12.778974 77.094933 -0.80179888
13.308692 77.369675 -0.79325223
13.743473 77.416946 -0.85757124
14.567745 77.178619 -0.83022052
-91.398727 77.561974 -0.95459163
-89.765297 77.753395 -0.94410747
-89.408905 77.734268 -0.92990011
-88.727547 77.609268 -0.9715265
-88.210411 77.560463 -0.76703113
-87.191093 77.715187 -0.79844666
-86.901573 77.66227 -0.95898908
-86.185928 77.786621 -0.77408147
-85.945343 77.696266 -0.79904222
-83.830521 77.7061 -0.91209596
-80.620415 77.754593 -0.93777597
-80.182518 77.781097 -0.92615438
-79.921745 77.900528 -0.90355694
-79.246048 77.643616 -0.75787461
-78.609749 77.740868 -0.73652297
-78.221222 77.740074 -0.63949752
-77.606422 77.78083 -0.62871957
-76.503471 77.808548 -0.71265364
-72.321175 77.818787 -0.53301257
-71.026154 77.641113 -0.55816853
-70.887428 77.752045 -0.55134517
-69.442299 77.890709 -0.60797262
-63.30323 77.908463 -0.5053255
-62.682018 77.791664 -0.62702852
-62.200092 77.838783 -0.61906725
-61.967464 77.657448 -0.62450182
-60.633221 77.770554 -0.67965448
-56.453754 77.778923 -0.54678375
-55.236969 77.999153 -0.58214438
-54.829311 77.675728 -0.57335138
-54.30917 77.758278 -0.60616595
-53.593075 77.736374 -0.53354931
-50.880199 77.612595 -0.98296219
-47.917526 77.620667 -0.65850466
-47.050827 77.876343 -0.7530331
-46.123711 77.945129 -0.81377435
-45.552593 77.71476 -0.88773018
-39.172958 77.964348 -0.63203913
-38.70784 77.652924 -0.69446129
-38.260918 77.711929 -0.59897381
-37.893387 77.627563 -0.66443604
-37.45163 77.833794 -0.83768296
-36.072544 77.549492 -0.54120272
-30.421171 77.795876 -0.82287288
-29.544161 77.771378 -0.72668415
-29.311174 77.903412 -0.70142806
-28.832214 77.643715 -0.7799291
-28.246458 77.704597 -0.7574904
-27.091608 77.744812 -0.69907904
-26.697044 77.731216 -0.72812009
-26.154978 77.672791 -0.65253007
-25.579077 77.687798 -0.76475632
-25.276577 77.723473 -0.67744309
-24.716574 77.921837 -0.54337341
-24.214994 77.726883 -0.69717348
-23.598148 77.707474 -0.5696851
-23.330391 77.772079 -0.62418413
-22.768057 77.675034 -0.66147548
-22.231199 77.741768 -0.6654526
-21.613169 77.573997 -0.5963434
-21.274591 77.809372 -0.64487082
-20.763428 77.697906 -0.68529928
-20.294437 77.675247 -0.66115952
-19.779472 77.65136 -0.58570307
-19.096569 77.713028 -0.56361562
-18.679333 77.743309 -0.6374799
-18.31859 77.750908 -0.66128057
-16.692614 77.776573 -0.57089394
-16.060961 77.914551 -0.88094962
-15.66232 77.736687 -0.5642795
-15.05946 77.715729 -0.59997141
-14.790912 77.889427 -0.60637528
-13.893736 77.717087 -0.76131493
-13.259235 77.781036 -0.79867941
-12.564506 77.7397 -0.80819416
-12.420341 77.952637 -0.90739089
-10.711289 77.770378 -0.78546375
-10.297747 77.736946 -0.63162339
-9.657752 77.921432 -0.61095524
-5.7491407 77.736137 -0.65504473
-5.1318259 77.663795 -0.65313041
-4.8375254 77.99855 -0.52922404
-3.2323899 77.737511 -0.92687798
1.2953134 77.586807 -0.80301809
1.5619859 77.703285 -0.87270874
2.4065504 77.83284 -0.92662454
2.8139687 77.857895 -0.79903734
12.517384 77.623779 -0.83579385
13.245678 77.578636 -0.88589334
13.650629 77.920876 -0.82016867
14.062868 77.930885 -0.91804838
-89.083961 78.126923 -0.8855899
-87.593277 78.012611 -0.88500875
-87.470062 78.112694 -0.78411961
-80.351875 78.28801 -0.78231692
-79.880707 78.27372 -0.8292529
-79.273285 78.139801 -0.90628695
-78.15683 78.259766 -0.76413035
-77.825829 78.189659 -0.69398016
-77.225296 78.296631 -0.73725152
-76.659218 78.475983 -0.903099
-71.772118 78.258537 -0.68981028
-71.22963 78.177452 -0.66934377
-70.418991 78.383476 -0.6083191
-69.171402 78.372749 -0.62868577
-63.237232 78.182167 -0.50490433
-62.572971 78.434723 -0.53465128
-62.480991 78.370888 -0.52719402
-61.68251 78.439331 -0.50719666
-61.303196 78.158829 -0.57293701
-60.731358 78.394051 -0.73197222
-57.433022 78.467316 -0.56578839
-56.744637 78.422432 -0.66425586
-55.733833 78.36763 -0.52212673
-55.262634 78.044106 -0.58994889
-54.70797 78.274384 -0.63481021
-54.172787 78.184998 -0.56336904
-46.952404 78.429192 -0.87422037
-46.149971 78.231926 -0.72477698
-45.972305 78.008568 -0.70926809
-40.855247 78.359276 -0.54241675
-39.493706 78.34375 -0.53041643
-38.804634 78.282982 -0.73804951
-38.228706 78.23436 -0.69673014
-37.57851 78.39035 -0.57727897
-37.375641 78.205826 -0.67011851
-36.581573 78.119217 -0.63964337
-36.209171 78.290184 -0.74130875
-31.783648 78.314438 -0.74557185
-31.295788 78.292641 -0.75267977
-30.807489 78.312744 -0.77505744
-30.350632 78.145042 -0.71304566
-29.801302 78.35881 -0.57682699
-29.235561 78.274376 -0.75737506
-28.953291 78.222778 -0.73790324
-28.401571 78.329597 -0.75445056
-26.133863 78.129555 -0.57035619
-24.875175 78.364883 -0.72693086
-23.611958 78.124107 -0.79447001
-23.385921 78.259674 -0.67395544
-22.734772 78.371399 -0.62252039
-22.235655 78.114891 -0.75844002
-21.768139 78.306877 -0.66016906
-21.274422 78.219955 -0.66408753
-20.694853 78.245018 -0.67887634
-20.100885 78.26149 -0.64376986
-19.814663 78.302559 -0.6651603
-19.321407 78.089584 -0.54453546
-18.75189 78.366219 -0.55092376
-18.182573 78.212753 -0.63391358
-17.716166 78.198601 -0.58888757
-17.413624 78.158577 -0.57022238
-16.775206 78.13166 -0.56751388
-16.227962 78.131851 -0.55908883
-15.946548 78.173347 -0.55472285
-15.053027 78.222923 -0.66808015
-14.804573 78.023079 -0.70279288
-14.081497 78.368294 -0.81354684
-13.806796 78.292336 -0.77914071
-12.954562 78.149734 -0.53009903
-11.951901 78.498375 -0.65399158
-11.29181 78.042328 -0.84172487
-10.660492 78.419891 -0.75593281
-6.5778866 78.149391 -0.53647143
-5.0156808 78.102409 -0.55457646
-4.7911243 78.120468 -0.62278914
-4.0856419 78.287666 -0.67677778
-3.6272111 78.130524 -0.84566063
-1.4840367 78.000618 -0.89572537
0.97282296 78.255394 -0.83940524
1.7836089 78.296288 -0.88549346
2.1849072 78.239609 -0.90085781
2.7126799 78.066826 -0.94738728
3.7037938 78.400009 -0.87826377
12.168587 78.494621 -0.80898672
12.919213 78.36042 -0.9456377
14.983155 78.086456 -0.8288244
-81.829506 78.834396 -0.83318269
-81.277611 78.969101 -0.92578626
-80.08577 78.792747 -0.84365845
-79.676338 78.830704 -0.89408123
-78.821053 78.724358 -0.90861082
-78.306961 78.670464 -0.79137403
-77.211075 78.591202 -0.54513139
-76.686676 78.626823 -0.91407251
-73.782562 78.633263 -0.64799458
-72.842323 78.943977 -0.72211099
-71.766739 78.956284 -0.74721926
-71.220627 78.842308 -0.69396776
-70.611496 78.873886 -0.64005774
-70.238846 78.958115 -0.72997952
-69.787018 78.74955 -0.58625555
-69.334099 78.932678 -0.7697103
-68.196053 78.70665 -0.66376716
-63.174934 78.680717 -0.54061353
-62.627323 78.746033 -0.57534713
-62.433441 78.798347 -0.50218564
-61.286064 78.66021 -0.53086436
-60.710503 78.72831 -0.60494477
-56.73814 78.775269 -0.65597618
-55.759007 78.784119 -0.54616195
-55.087479 78.576187 -0.60866737
-54.831799 78.652779 -0.59644365
-54.249947 78.700333 -0.55741996
-53.519966 78.925644 -0.69335246
-53.235363 78.786072 -0.63353664
-52.683548 78.973915 -0.68188477
-52.409271 78.591309 -0.61580849
-51.781742 78.802086 -0.69874191
-47.058216 78.97567 -0.76678741
-46.836792 78.676514 -0.74525326
-46.209915 78.810081 -0.91556346
-39.68335 78.679771 -0.81578815
-39.039902 78.598801 -0.50513381
-37.458385 78.607498 -0.61654532
-32.104156 78.703133 -0.8175835
-31.312187 78.715599 -0.97723609
-30.717588 78.781654 -0.85239476
-30.409542 78.830368 -0.72496873
-29.738348 78.753502 -0.71160424
-29.215492 78.709259 -0.64621395
-28.355066 78.849808 -0.85954463
-27.062336 78.70401 -0.85482812
-26.69323 78.659828 -0.60523826
-26.411615 78.996231 -0.5973078
-25.757944 78.77562 -0.71910447
-25.250124 78.526825 -0.72948503
-23.784388 78.668648 -0.74064881
-22.766569 78.717125 -0.60472924
-22.156765 78.808762 -0.68749255
-21.788626 78.847038 -0.70840138
-21.137058 78.739548 -0.64324415
-20.730499 78.776726 -0.73008174
-20.177681 78.584877 -0.6426006
-19.803307 78.616837 -0.59171593
-19.147905 78.636742 -0.56006837
-18.975796 78.60807 -0.66841179
-18.336651 78.714142 -0.62556291
-17.912916 78.611885 -0.8841325
-17.311222 78.707626 -0.61014044
-16.39584 78.97197 -0.69696575
-15.764228 78.958588 -0.69449377
-14.744219 78.629311 -0.7047801
-14.185594 78.728821 -0.79064059
-13.780033 78.816811 -0.6833275
-13.08713 78.75396 -0.5003171
-12.762668 78.94088 -0.87462449
-12.061131 78.54084 -0.50224859
-11.203716 78.679169 -0.58180118
-10.943788 78.686333 -0.55830884
-6.5578513 78.860809 -0.5325824
-6.4132671 78.703255 -0.73623323
-5.7117567 78.725586 -0.63634729
-5.4541802 78.755188 -0.52921367
-4.76647 78.913666 -0.51175165
-4.3645835 78.758018 -0.62748832
-3.8927004 78.563934 -0.641271
0.78417349 78.981705 -0.7335093
1.734996 78.689438 -0.85560459
2.0652997 78.73307 -0.91703606
2.649713 78.773903 -0.86086249
3.2356749 78.798065 -0.90931112
3.5377159 78.571152 -0.85884893
9.0873508 78.934776 -0.97576773
12.346655 78.696243 -0.85764134
12.894849 78.684334 -0.81929654
-90.893219 79.376587 -0.88837129
-89.917191 79.437622 -0.80215269
-89.386566 79.250198 -0.97151363
-88.111374 79.493629 -0.98455727
-80.37999 79.290199 -0.91456527
-79.739471 79.044006 -0.944269
-79.133987 79.181549 -0.85007578
-78.292816 79.096588 -0.83295327
-76.76416 79.066093 -0.6434285
-72.880318 79.087677 -0.62970334
-71.799049 79.184319 -0.74863595
-71.208405 79.268379 -0.65719724
-70.706528 79.210777 -0.73157805
-70.1558 79.149017 -0.62128431
-69.512268 79.38385 -0.61038297
-68.97084 79.02224 -0.52477169
-67.25679 79.34153 -0.71510625
-63.49427 79.484657 -0.54251993
-62.744213 79.228836 -0.71980906
-62.180515 79.269203 -0.7641117
-61.88596 79.472656 -0.65319836
-61.3913 79.15123 -0.59308457
-56.942272 79.257858 -0.64641035
-56.034145 79.265564 -0.53754389
-55.925808 79.475296 -0.56538999
-55.182419 79.34536 -0.6392417
-54.59185 79.384903 -0.54221731
-54.348991 79.180504 -0.58051038
-53.558853 79.226654 -0.69655246
-53.419842 79.324196 -0.64220691
-52.783218 79.026283 -0.70351732
-47.374825 79.375465 -0.71746802
-46.819721 79.109657 -0.93984824
-46.401917 79.345703 -0.79965413
-45.327999 79.108788 -0.91134298
-39.847332 79.20623 -0.6273948
-39.163883 79.424019 -0.52406394
-38.733368 79.272453 -0.52209044
-38.187832 79.174789 -0.50373751
-37.564499 79.285011 -0.64264095
-37.447605 79.125732 -0.77651572
-36.675854 79.43605 -0.70216423
-33.635303 79.404938 -0.52619594
-31.365301 79.341835 -0.73433018
-30.644888 79.32164 -0.71425498
-30.365032 79.218895 -0.59800673
-29.675186 79.188354 -0.64931983
-29.106667 79.027779 -0.83073151
-28.654566 79.338692 -0.86440593
-27.870649 79.467819 -0.68201357
-25.635628 79.062134 -0.65572143
-25.481203 79.185234 -0.82742912
-24.112648 79.088791 -0.58593506
-23.935547 79.043373 -0.60663468
-23.28948 79.35743 -0.71671772
-22.640657 79.346046 -0.53771698
-22.312901 79.267326 -0.57365596
-21.713373 79.369034 -0.66539419
-21.164785 79.2024 -0.65104324
-20.79306 79.314003 -0.53512508
-20.332897 79.364395 -0.77253234
-18.922886 79.407867 -0.69021749
-18.12923 79.373032 -0.56771541
-17.843594 79.284119 -0.65370339
-17.091833 79.306831 -0.66991687
-16.719124 79.269043 -0.66297078
-16.211916 79.08226 -0.61277807
-15.525051 79.461349 -0.81710231
-14.775296 79.25238 -0.77104574
-14.194068 79.093735 -0.72934008
-13.777973 79.202553 -0.616283
-12.869906 79.158859 -0.51314873
-12.480022 79.31012 -0.5118463
-9.7531805 79.303024 -0.62932503
-6.5150423 79.269646 -0.59598798
-6.3033714 79.218422 -0.56374389
-5.9080353 79.298523 -0.70179659
-5.1286077 79.142342 -0.73426241
-4.7418628 79.339661 -0.71466708
-4.2965865 79.195091 -0.59173924
1.3980154 79.233139 -0.89505696
2.7260146 79.46965 -0.98354679
9.1442738 79.439903 -0.99367565
-91.585449 79.769569 -0.53437865
-91.2873 79.686874 -0.74204487
-90.906021 79.542191 -0.82345986
-90.254425 79.758667 -0.6659686
-89.987564 79.565079 -0.54697925
-88.778709 79.760506 -0.86829567
-88.374519 79.894699 -0.77567923
-87.860535 79.882896 -0.88855308
-72.189911 79.966324 -0.99315828
-71.721161 79.766884 -0.82459641
-70.84008 79.747444 -0.793338
-70.321434 79.784592 -0.75813466
-69.994102 79.720734 -0.85799646
-69.173592 79.927521 -0.76619434
-67.175217 79.529297 -0.76576734
-63.606419 79.756813 -0.63608098
-63.094933 79.783722 -0.96775627
-62.737553 79.670784 -0.62326008
-61.843624 79.804436 -0.70521557
-56.007446 79.851288 -0.63061702
-55.764652 79.781609 -0.61051726
-55.210838 79.658592 -0.70234936
-54.392307 79.690407 -0.61434907
-53.640625 79.574379 -0.57809466
-52.870552 79.556892 -0.5216825
-51.556259 79.622528 -0.64986354
-48.282101 79.528297 -0.7604124
-47.584244 79.803497 -0.68213576
-47.217033 79.705414 -0.66551733
-46.976585 79.753601 -0.56037843
-46.442104 79.552696 -0.77766603
-45.252487 79.572197 -0.66435641
-39.842197 79.878059 -0.64255345
-39.190434 79.54007 -0.58445418
-38.779659 79.67202 -0.53402549
-38.249329 79.780365 -0.55762875
-37.700504 79.792549 -0.62517577
-37.263493 79.710449 -0.80199665
-36.865128 79.762657 -0.80067176
-36.360222 79.705467 -0.54299641
-35.59428 79.887497 -0.62614405
-31.727951 79.528168 -0.63914686
-31.048969 79.753517 -0.68953794
-30.651714 79.930305 -0.90801132
-30.354895 79.669289 -0.66184253
-29.709068 79.758873 -0.77903044
-29.460506 79.691727 -0.83135563
-28.586536 79.814117 -0.84225732
-27.87648 79.574059 -0.68063575
-25.712006 79.654228 -0.70460117
-24.300968 79.651443 -0.90678132
-23.542797 79.658417 -0.69061273
-22.715998 79.829666 -0.5411014
-22.188021 79.53186 -0.5404771
-21.670677 79.930496 -0.61808813
-21.456778 79.554916 -0.55773181
-20.619404 79.605743 -0.66001469
-20.15559 79.786697 -0.64360702
-19.874073 79.748428 -0.71109664
-19.327383 79.901497 -0.69005752
-18.800463 79.705299 -0.63868636
-18.119116 79.658005 -0.64656621
-17.877981 79.673706 -0.57771087
-17.351664 79.648384 -0.64345092
-16.775734 79.742943 -0.57317042
-16.233639 79.898239 -0.65105981
-15.71044 79.731003 -0.71848524
-15.329436 79.711098 -0.60201746
-14.908234 79.809242 -0.57579637
-14.152022 79.902016 -0.63515007
-13.777647 79.817627 -0.61826897
-13.49826 79.711693 -0.56690347
-12.59893 79.869141 -0.52795672
-11.877394 79.846848 -0.60251427
-10.595528 79.80722 -0.52986419
-10.236629 79.868263 -0.53879684
-6.6520748 79.762009 -0.67345917
-5.6042938 79.940552 -0.66229367
-5.2818017 79.854538 -0.62259442
-4.6889596 79.870064 -0.65903056
-4.4805222 79.544182 -0.67931604
0.83986408 79.779182 -0.78011829
1.8390465 79.779297 -0.95344657
2.7263589 79.501801 -0.95334631
7.4824233 79.500069 -0.93385798
13.269921 79.645966 -0.80008984
-89.851486 80.419388 -0.81772709
-88.6203 80.027672 -0.98852593
-88.284019 80.375687 -0.82137507
-87.78344 80.27578 -0.85084796
-87.013519 80.226974 -0.91835535
-86.527458 80.468475 -0.99081427
-86.245613 80.358192 -0.9405452
-72.170021 80.341431 -0.85211158
-71.742546 80.187347 -0.89635283
-71.343414 80.065666 -0.96767515
-70.753586 80.267059 -0.73498839
-70.43232 80.274391 -0.77607596
-69.726212 80.151405 -0.94564015
-69.379662 80.044746 -0.80715483
-68.739349 80.23793 -0.66801202
-64.455963 80.075943 -0.63116586
-63.800659 80.251358 -0.62860525
-63.105885 80.338219 -0.71950048
-61.785999 80.107086 -0.66969436
-61.381512 80.28759 -0.65047836
-56.42802 80.081879 -0.66878086
-55.788239 80.425125 -0.66364598
-55.198196 80.356682 -0.50809842
-54.751652 80.313644 -0.65571636
-54.273926 80.474701 -0.69931877
-53.584129 80.422897 -0.82275015
-53.475052 80.486076 -0.71091902
-52.548389 80.3293 -0.69729561
-47.848335 80.389359 -0.91860515
-47.382935 80.260117 -0.92383689
-46.86224 80.417854 -0.67633456
-46.28252 80.047371 -0.67999625
-44.977551 80.158798 -0.84986472
-40.811981 80.326691 -0.61766779
-39.739819 80.29744 -0.70545965
-39.350674 80.116165 -0.83786654
-38.702766 80.255104 -0.64633089
-38.318638 80.166985 -0.66332346
-37.798573 80.057678 -0.58863986
-37.224766 80.329315 -0.71421742
-30.643888 80.437859 -0.71103662
-30.183527 80.310707 -0.70299363
-29.91675 80.166222 -0.68514937
-28.963135 80.036194 -0.62918472
-24.911737 80.022392 -0.92072105
-23.599285 80.212387 -0.62720901
-23.269754 80.090759 -0.5503338
-22.750641 80.119545 -0.72279274
-22.3447 80.208939 -0.68017972
-21.812717 80.246544 -0.71202493
-21.346334 80.315125 -0.65999496
-20.17889 80.468887 -0.69333386
-19.759012 80.170387 -0.66086912
-19.211573 80.262779 -0.72063315
-18.948946 80.382469 -0.69598013
-18.236423 80.447754 -0.75616765
-17.96265 80.378685 -0.52102661
-17.138317 80.031105 -0.55288333
-16.734127 80.21907 -0.55130613
-16.161495 80.398056 -0.68902785
-15.211571 80.250725 -0.66551167
-14.684501 80.20636 -0.61852437
-14.241324 80.25811 -0.59387368
-13.776997 80.313744 -0.65931952
-12.607865 80.176437 -0.53993613
-12.366687 80.109375 -0.51986533
-9.8121481 80.345619 -0.59039152
-9.2546835 80.008232 -0.64745897
-8.7105198 80.266266 -0.60700154
-7.3601885 80.496239 -0.67254835
-6.8734469 80.396393 -0.6541276
-6.090519 80.21566 -0.70172691
-5.6925273 80.224792 -0.61764133
-5.2716537 80.261375 -0.64769667
0.056955457 80.185883 -0.99689412
1.739313 80.061348 -0.97569972
2.3984914 80.257492 -0.77994436
-90.638443 80.980484 -0.85059166
-90.239075 80.556404 -0.50102311
-88.698151 80.926468 -0.78270173
-88.248543 80.606819 -0.69416809
-87.719055 80.745903 -0.61061227
-87.391495 80.65477 -0.85092115
-86.282066 80.645409 -0.63120461
-85.507202 80.825508 -0.96130031
-71.776253 80.555367 -0.8920024
-70.790329 80.578659 -0.76179498
-69.511993 80.670792 -0.64876902
-64.195305 80.863213 -0.72325855
-63.711613 80.684319 -0.77920908
-63.289375 80.735733 -0.82708871
-62.170231 80.695786 -0.870134
-61.791039 80.855576 -0.71947974
-57.876656 80.688835 -0.62464857
-56.563755 80.719322 -0.68530607
-55.718609 80.664963 -0.66153848
-55.139133 80.852852 -0.8433345
-54.835968 80.746765 -0.7247054
-54.164093 80.724876 -0.65484709
-53.765255 80.732056 -0.65861827
-53.329807 80.782257 -0.69944233
-52.801754 80.844772 -0.59557509
-48.63694 80.734467 -0.910577
-48.282143 80.722839 -0.88001478
-47.765141 80.924812 -0.81672287
-47.39769 80.807213 -0.62402511
-46.469604 80.855072 -0.72561848
-40.094421 80.692268 -0.57010102
-39.819214 80.557602 -0.77590513
-39.140312 80.699661 -0.71005327
-38.900688 80.652069 -0.83272403
-37.754662 80.847 -0.66159189
-37.164967 80.918907 -0.6513083
-31.778765 80.931839 -0.77110022
-31.007919 80.529633 -0.59374875
-30.728386 80.670128 -0.70612079
-30.1728 80.654991 -0.67447692
-29.779203 80.926552 -0.6492703
-29.159876 80.599495 -0.73955959
-26.906691 80.913261 -0.82286227
-26.175303 80.719261 -0.78305668
-24.566849 80.521523 -0.80092335
-24.143784 80.61882 -0.78306937
-23.64357 80.764847 -0.57137191
-22.58779 80.70549 -0.63766479
-22.254185 80.609154 -0.6727165
-21.834913 80.957367 -0.96289659
-21.073238 80.832031 -0.56991082
-20.880991 80.813499 -0.56653857
-20.247553 80.997154 -0.55679429
-19.139704 80.540161 -0.74902958
-18.829464 80.583847 -0.62583733
-18.239794 80.631966 -0.57863533
-17.759617 80.667747 -0.60964352
-16.892498 80.620682 -0.58134317
-16.274876 80.735977 -0.65282655
-15.849789 80.966148 -0.54223764
-15.186482 80.681503 -0.69222039
-14.700284 80.788734 -0.63351995
-14.295743 80.743668 -0.65683186
-13.734147 80.819572 -0.55743152
-13.388783 80.79879 -0.63502055
-12.031327 80.936768 -0.50223666
-11.77233 80.722008 -0.52730697
-11.417572 80.547043 -0.54792517
-10.926524 80.945221 -0.53328955
-6.9349689 80.885193 -0.53411359
-6.0343895 80.582214 -0.62212408
-5.7502623 80.616699 -0.67743015
-5.4451447 80.612022 -0.61796057
-4.9213424 80.728142 -0.59409648
-4.3914614 80.664886 -0.6772694
-3.9452384 80.550476 -0.7147032
-2.753809 80.578629 -0.68768501
0.076881617 80.890625 -0.74973929
1.320094 80.814339 -0.88913584
1.9561542 80.987419 -0.98971045
2.1824343 80.781258 -0.93560839
11.996538 80.74202 -0.94872868
12.212484 80.706413 -0.90777814
12.581257 80.91716 -0.89130753
-89.06852 81.093849 -0.95173007
-88.405586 81.216476 -0.65051842
-87.566429 81.291801 -0.82548952
-87.220978 81.423355 -0.57082283
-86.521187 81.179924 -0.84977919
-86.384705 81.108223 -0.79898977
-85.690392 81.127472 -0.78849727
-85.212479 81.35775 -0.74923289
-84.968208 81.323097 -0.53634971
-83.322678 81.39447 -0.90336937
-79.987488 81.460571 -0.74027526
-65.703102 81.163193 -0.95348692
-64.119095 81.439377 -0.85971445
-63.993717 81.030815 -0.7428894
-63.223995 81.145302 -0.81196958
-62.981354 81.484497 -0.92518342
-62.28558 81.336563 -0.77170241
-61.711494 81.232948 -0.69775951
-61.473404 81.414429 -0.81595349
-57.153759 81.454178 -0.73467362
-56.798298 81.188179 -0.69237548
-56.361713 81.133659 -0.81004858
-55.666592 81.25222 -0.57276928
-54.864143 81.236755 -0.77951652
-54.199192 81.337967 -0.7100811
-53.51086 81.264984 -0.62244368
-53.211903 81.163971 -0.64825416
-52.24892 81.05175 -0.72925836
-51.51049 81.488716 -0.66670495
-48.215244 81.326065 -0.53444988
-47.705158 81.124153 -0.83736569
-47.47583 81.261002 -0.89104402
-41.095932 81.354271 -0.55577147
-40.905697 81.328522 -0.66160554
-40.028076 81.357468 -0.63164043
-39.843697 81.210297 -0.62300503
-39.231739 81.455803 -0.59630698
-38.651024 81.364616 -0.89135063
-37.801033 81.19101 -0.62469423
-31.5205 81.36824 -0.76296449
-31.30879 81.27404 -0.67810851
-30.972649 81.137146 -0.61393201
-29.883615 81.182663 -0.59759456
-29.269249 81.367462 -0.7901988
-24.794815 81.254578 -0.55993479
-23.095352 81.297211 -0.53861666
-22.746941 81.242157 -0.67154753
-22.351826 81.189018 -0.7129792
-21.885096 81.329483 -0.75525129
-21.018759 81.235695 -0.66292971
-20.728346 81.272903 -0.56633627
-20.225695 81.03009 -0.67359793
-19.767567 81.139801 -0.66228789
-18.524969 81.068893 -0.56090319
-18.110481 81.166458 -0.71901613
-17.800741 81.17009 -0.7926265
-17.424051 81.352325 -0.75924951
-16.744719 81.263435 -0.65335321
-16.167017 81.318237 -0.5519191
-15.701117 81.29055 -0.68489599
-15.328799 81.343613 -0.57510823
-14.703071 81.268288 -0.60810596
-14.174533 81.21492 -0.74645996
-13.681 81.203545 -0.78198349
-13.205562 81.374191 -0.65767318
-12.742218 81.283653 -0.70012695
-12.391853 81.314171 -0.60142255
-11.611473 81.195442 -0.53119946
-10.590849 81.343346 -0.54503781
-10.474631 81.177155 -0.68746305
-9.6565008 81.21093 -0.6274603
-8.685564 81.135544 -0.60336643
-7.7310405 81.011826 -0.50524962
-6.7264104 81.207787 -0.50830394
-6.2215576 81.432648 -0.55225122
-5.272995 81.213188 -0.62192649
-3.9681292 81.111465 -0.73104095
1.2832342 81.336777 -0.83214498
12.659864 81.20842 -0.96942735
17.524824 81.467407 -0.6616962
-87.254333 81.568008 -0.53279543
-86.671768 81.710632 -0.52281761
-86.488289 81.657936 -0.5470705
-80.19297 81.929413 -0.94267035
-64.283577 81.868996 -0.91376996
-63.646984 81.743942 -0.98147577
-63.272011 81.789894 -0.99739975
-62.683308 81.804138 -0.89393353
-62.254845 81.689552 -0.65864754
-57.572857 81.841835 -0.68978232
-57.426018 81.574783 -0.75609016
-56.771793 81.802933 -0.80597454
-56.209106 81.66272 -0.73158288
-55.776371 81.731453 -0.64547634
-55.212006 81.599991 -0.70527881
-54.697948 81.60199 -0.73714173
-54.420547 81.546593 -0.59115791
-48.825207 81.709457 -0.92409563
-48.250633 81.935043 -0.73398155
-47.709671 81.951027 -0.98459637
-47.119869 81.533211 -0.88620925
-46.585251 81.806694 -0.95279348
-40.507637 81.698425 -0.6797874
-40.120979 81.697243 -0.63880062
-39.889423 81.823746 -0.66990536
-39.257347 81.802437 -0.93689209
-38.92997 81.967033 -0.62911493
-36.555801 81.917801 -0.69282597
-31.588268 81.778549 -0.7427085
-31.433266 81.61805 -0.68992162
-30.518795 81.647415 -0.53094614
-30.266058 81.684021 -0.63489079
-29.725817 81.950233 -0.65281785
-29.028202 81.651878 -0.60166025
-28.552326 81.879433 -0.72773767
-28.096567 81.564072 -0.9519707
-25.82164 81.976501 -0.61768746
-24.505192 81.695671 -0.97459453
-24.398827 81.618591 -0.9717769
-23.825314 81.914444 -0.53672451
-23.323229 81.548279 -0.50557941
-22.899927 81.883934 -0.53584564
-22.326691 81.736153 -0.82608199
-21.887789 81.788696 -0.64539778
-21.051928 81.65033 -0.75166196
-20.800053 81.792793 -0.63661474
-20.122005 81.803658 -0.70378
-19.854349 81.794212 -0.71023434
-18.512859 81.677155 -0.90568924
-18.349476 81.604668 -0.7623105
-17.230263 81.667511 -0.69065416
-16.732624 81.710846 -0.73226535
-16.167448 81.905609 -0.7060762
-15.776084 81.789894 -0.64733827
-15.255816 81.710022 -0.70635742
-14.783534 81.743507 -0.73127323
-14.396272 81.690498 -0.70337456
-13.687557 81.658241 -0.63736367
-13.494755 81.851257 -0.80308187
-12.655092 81.629311 -0.59135807
-12.442824 81.677505 -0.63220626
-10.60629 81.75721 -0.5597291
-8.5422573 81.973938 -0.53240657
-8.33356 81.904442 -0.55512524
-6.867095 81.869789 -0.72252452
-6.4499507 81.816643 -0.5729593
-5.8903136 81.792168 -0.66235322
-5.3851056 81.574013 -0.58377522
-4.847332 81.659081 -0.6743542
-3.6220036 81.998947 -0.78641164
1.2788942 81.698318 -0.85353994
17.468506 81.862099 -0.88114464
17.730608 81.997757 -0.70941907
18.861149 81.64959 -0.77055395
-82.55513 82.14785 -0.8563168
-82.202866 82.312119 -0.93233269
-80.579674 82.341431 -0.80504149
-80.489761 82.058121 -0.8978678
-79.814026 82.128593 -0.63038284
-79.307823 82.013908 -0.88254827
-78.680382 82.067924 -0.84395826
-62.780224 82.183609 -0.79702514
-62.440723 82.367058 -0.92186856
-61.921558 82.44558 -0.60499597
-57.7094 82.306641 -0.84616178
-57.068573 82.21595 -0.86275744
-56.822147 82.141685 -0.77836472
-56.170811 82.246666 -0.89840621
-55.996651 82.330429 -0.96309686
-55.143692 82.321846 -0.85483152
-54.539093 82.253265 -0.55475235
-54.01918 82.143898 -0.86812043
-53.829182 82.165382 -0.77875644
-53.395584 82.242386 -0.61803526
-52.469788 82.05262 -0.60523081
-49.155506 82.227585 -0.93546087
-47.269032 82.276077 -0.69058359
-40.218037 82.301369 -0.66022754
-39.706356 82.133392 -0.65149003
-39.391502 82.124481 -0.63566864
-38.639694 82.234657 -0.69709677
-37.809204 82.351776 -0.68479854
-36.980064 82.229202 -0.73707604
-36.336941 82.434776 -0.70416504
-32.145969 82.357651 -0.69790542
-31.708817 82.202896 -0.67558038
-31.151482 82.337059 -0.71291089
-30.823355 82.213074 -0.66308266
-30.184786 82.257263 -0.64471114
-29.677032 82.13356 -0.69809526
-29.480135 82.12471 -0.73487622
-25.593201 82.266235 -0.96517557
-24.814037 82.479004 -0.57019973
-23.856951 82.038055 -0.56181145
-23.294504 82.374756 -0.55571562
-22.797937 82.251442 -0.56469035
-21.293394 82.344452 -0.55509317
-20.69537 82.272789 -0.71233428
-20.496674 82.206383 -0.79373282
-19.402254 82.244186 -0.56743985
-18.75713 82.217651 -0.62445354
-18.143154 82.069504 -0.85208488
-17.75532 82.439819 -0.83837581
-17.081114 82.198006 -0.8550036
-16.67308 82.150749 -0.71104646
-16.244377 82.17662 -0.74005508
-15.739905 82.30497 -0.73977
-15.394463 82.376869 -0.69838488
-14.721156 82.128654 -0.70606828
-14.245295 82.299789 -0.72833478
-13.845192 82.256836 -0.6423825
-13.033606 82.454308 -0.6796537
-12.684539 82.276009 -0.662278
-12.192266 82.254707 -0.64870429
-11.758373 82.280952 -0.56099391
-11.273805 82.302368 -0.5557918
-10.883181 82.200104 -0.73660117
-10.332135 82.149231 -0.59228379
-9.6189728 82.346512 -0.63302088
-9.1976166 82.200638 -0.56313598
-8.5003319 82.09935 -0.59574932
-8.3853207 82.089653 -0.63506502
-7.8994498 82.3302 -0.57074815
-7.3416948 82.278015 -0.64038074
-6.7737117 82.263367 -0.65519911
-5.8460631 82.218956 -0.64543629
-5.3176842 82.159714 -0.69197142
-4.6845956 82.239807 -0.65997237
-4.0047445 82.399582 -0.69948769
-3.5266182 82.136986 -0.87097943
-3.1989436 82.449867 -0.57418239
16.902498 82.130806 -0.79034758
17.923151 82.047729 -0.73605788
-89.001396 82.609459 -0.81058258
-87.721916 82.695732 -0.78969812
-80.266708 82.682831 -0.72229546
-79.839882 82.651642 -0.71896148
-79.392029 82.805176 -0.76289284
-78.890068 82.640404 -0.78644621
-77.886024 82.89917 -0.67886728
-74.191452 82.83931 -0.87001175
-73.822021 82.820572 -0.89128536
-71.592751 82.997856 -0.80635071
-70.930145 82.998596 -0.96730375
-66.127724 82.603958 -0.97759944
-62.942234 82.578712 -0.73786557
-61.893425 82.579948 -0.71871126
-60.77322 82.57653 -0.83179337
-56.607506 82.921219 -0.89486057
-56.208694 82.532578 -0.89075756
-55.574554 82.905128 -0.9081732
-55.31876 82.79686 -0.82648039
-54.851471 82.745422 -0.89884436
-54.291595 82.751839 -0.74971992
-53.715267 82.870239 -0.92682177
-48.158577 82.668808 -0.92293078
-47.828384 82.648483 -0.81514466
-47.353561 82.705284 -0.84849715
-46.938259 82.595833 -0.96590602
-46.446423 82.88562 -0.93560243
-40.549896 82.568657 -0.83611566
-40.115841 82.544212 -0.74611646
-39.734707 82.759888 -0.64323401
-39.490948 82.755981 -0.55297238
-38.626419 82.803062 -0.72097248
-38.468315 82.608421 -0.933002
-37.729679 82.613136 -0.78560764
-32.099098 82.754997 -0.57886118
-31.739948 82.715721 -0.64331037
-31.271954 82.714981 -0.83756948
-30.673477 82.855186 -0.53370059
-30.029554 82.783745 -0.70098019
-29.777334 82.841965 -0.7477538
-28.461481 82.994759 -0.89991599
-25.345463 82.600243 -0.69895136
-24.785545 82.849182 -0.74459291
-24.434334 82.745949 -0.72723639
-23.616398 82.664337 -0.54517621
-23.241884 82.882622 -0.69731998
-22.792833 82.805367 -0.75248587
-22.181906 82.757515 -0.76820248
-21.462185 82.999496 -0.50907356
-20.546228 82.787079 -0.63336939
-18.027445 82.799744 -0.88910228
-17.855614 82.83667 -0.90661573
-17.213346 82.799477 -0.77307844
-16.662958 82.807808 -0.89202863
-16.172707 82.792953 -0.75032741
-15.63471 82.863594 -0.67141497
-15.203377 82.635063 -0.76159555
-14.791047 82.821617 -0.66474342
-14.326715 82.653297 -0.67810595
-13.662556 82.965942 -0.73655909
-13.152173 82.74234 -0.71227819
-12.777771 82.672836 -0.66857636
-12.251374 82.700851 -0.63996977
-11.762998 82.597939 -0.63056248
-11.243703 82.828644 -0.82211894
-10.768532 82.547646 -0.68158817
-10.235668 82.925598 -0.68904263
-9.2971039 82.660889 -0.61129761
-8.7043743 82.749008 -0.65451354
-8.4529371 82.755188 -0.61167687
-7.7141466 82.733597 -0.61565989
-7.3690572 82.742226 -0.63774514
-6.7032213 82.746529 -0.59073371
-6.3467207 82.900795 -0.65329099
-5.7234545 82.683647 -0.63298607
-5.3185472 82.914268 -0.53871351
1.0980949 82.610138 -0.9534924
16.932781 82.731453 -0.93282944
17.19429 82.606804 -0.52146226
-81.016502 83.166733 -0.97201878
-80.803467 83.319061 -0.939964
-80.026978 83.120697 -0.56702286
-79.165886 83.313942 -0.95595312
-77.629135 83.088013 -0.62860221
-77.052246 83.435265 -0.83650589
-73.799957 83.330139 -0.84303331
-72.623703 83.462143 -0.69355673
-72.357368 83.443451 -0.66610992
-71.757248 83.270119 -0.7338872
-71.285095 83.36673 -0.94808769
-64.398834 83.312485 -0.99286407
-55.523842 83.216896 -0.61261272
-55.327667 83.267273 -0.81241179
-54.674652 83.017616 -0.67630196
-53.877285 83.042992 -0.99091601
-50.006042 83.212715 -0.95197928
-48.776863 83.035248 -0.833408
-48.014683 83.438072 -0.91275966
-47.597328 83.01664 -0.98742157
-46.888298 83.387939 -0.85371184
-41.698505 83.35601 -0.55717993
-41.216633 83.223991 -0.73638618
-40.812557 83.40551 -0.57636285
-40.200397 83.348938 -0.7416994
-39.713051 83.396996 -0.56052798
-39.491886 83.440208 -0.96386892
-38.006748 83.193756 -0.6602608
-37.709358 83.092026 -0.70822108
-36.872223 83.478951 -0.88532674
-31.793747 83.092293 -0.90475059
-31.399208 83.104355 -0.79756981
-30.741686 83.291725 -0.73127592
-30.353054 83.278374 -0.65947515
-29.786093 83.044106 -0.67541522
-24.578302 83.247368 -0.53061479
-23.729753 83.279831 -0.73121762
-23.411283 83.087158 -0.60228097
-22.124384 83.32225 -0.64209372
-21.769079 83.27404 -0.72949505
-21.481356 83.130157 -0.66979879
-19.710381 83.083008 -0.72620124
-19.478212 83.098778 -0.60303068
-17.796455 83.376099 -0.98019636
-16.729198 83.158218 -0.78612006
-16.203985 83.32959 -0.87757713
-15.74915 83.112488 -0.74577737
-15.308246 83.284126 -0.68054932
-14.811586 83.232224 -0.85523903
-14.17865 83.351433 -0.69086504
-13.710878 83.277519 -0.62147421
-13.217022 83.313248 -0.73365372
-12.757466 83.261078 -0.6295445
-12.153031 83.11898 -0.55513185
-11.726707 83.335884 -0.72439545
-11.119976 83.322769 -0.61524606
-10.500526 83.456169 -0.55037135
-10.188597 83.287483 -0.60765821
-9.7085123 83.37912 -0.64531296
-9.0505867 83.224442 -0.72073859
-8.720417 83.245773 -0.66589296
-7.7333364 83.212051 -0.68825996
-7.3511295 83.292191 -0.67919081
-6.8121719 83.284302 -0.60937536
-6.3166742 83.242477 -0.65706968
-5.866405 83.052635 -0.67451078
-5.0964413 83.236084 -0.68964422
-4.8457603 83.368439 -0.68840742
0.91085708 83.3498 -0.86086041
16.096668 83.244461 -0.98827004
16.802675 83.103615 -0.878627
-78.253983 83.876801 -0.5270251
-74.026352 83.808426 -0.98195565
-73.592575 83.549263 -0.93147826
-73.367966 83.954704 -0.84902912
-72.380585 83.647583 -0.75434828
-71.66391 83.759636 -0.73519289
-71.374298 83.691124 -0.84960103
-70.116936 83.507187 -0.77046049
-69.51722 83.896988 -0.61000979
-69.435822 83.715546 -0.93945229
-63.81493 83.563156 -0.90627593
-56.753036 83.648521 -0.91548818
-54.256508 83.582794 -0.83542407
-53.275345 83.82901 -0.90643489
-52.680672 83.615845 -0.75493038
-47.780151 83.777283 -0.82431954
-47.252182 83.722603 -0.71931624
-41.827824 83.621918 -0.60871238
-41.297161 83.830826 -0.77755547
-40.80909 83.73732 -0.68686622
-39.595604 83.754974 -0.70900941
-39.319157 83.810204 -0.57806307
-38.560997 83.728271 -0.73045242
-38.092979 83.766098 -0.82218742
-37.63805 83.573586 -0.59993559
-36.814217 83.691315 -0.81660855
-31.866554 83.828285 -0.89892024
-31.137022 83.654243 -0.66306883
-30.776247 83.764099 -0.76805872
-29.434128 83.930191 -0.73140156
-24.726995 83.88652 -0.68405461
-24.34865 83.595818 -0.52552038
-23.772463 83.656052 -0.71112698
-22.920746 83.934288 -0.5685901
-22.349792 83.697899 -0.84528035
-21.839405 83.982834 -0.67297888
-21.113716 83.520767 -0.85558242
-20.035269 83.969154 -0.73633015
-17.865278 83.809708 -0.95851594
-17.394567 83.714745 -0.55765975
-16.67724 83.763466 -0.85050392
-16.318504 83.676994 -0.78375942
-15.685924 83.78978 -0.81439537
-15.335693 83.622459 -0.7768262
-14.8846 83.706009 -0.84065008
-14.182354 83.716217 -0.74991423
-13.823009 83.719414 -0.70285314
-13.316584 83.75489 -0.77747703
-12.81768 83.74128 -0.7774322
-12.151812 83.758621 -0.70636213
-11.815688 83.685333 -0.75974327
-11.268023 83.71669 -0.64099681
-10.701476 83.733192 -0.74705511
-10.209931 83.559341 -0.7744875
-9.655303 83.629097 -0.69932067
-9.2332067 83.683182 -0.55892026
-8.8173857 83.580368 -0.75560647
-8.268837 83.680237 -0.6734581
-7.6386075 83.608223 -0.70016384
-7.1855578 83.768845 -0.6041652
-6.7378321 83.69957 -0.57728922
-6.257525 83.703865 -0.74098128
-5.8280563 83.881721 -0.66199809
-5.2008991 83.778694 -0.64129293
-4.8197031 83.625305 -0.61386693
-4.2727556 83.77211 -0.6093455
-3.3799231 83.995529 -0.6246714
-73.407326 84.450287 -0.59758645
-72.075859 84.255753 -0.71751434
-71.397224 84.220306 -0.85242724
-70.808441 84.194839 -0.64240056
-70.252609 84.177895 -0.71631444
-69.846756 84.171677 -0.90826243
-68.546394 84.031647 -0.8233307
-56.633076 84.332878 -0.98768306
-56.283207 84.301407 -0.94927198
-53.358299 84.130577 -0.87408817
-48.686974 84.239426 -0.92631459
-47.674049 84.089935 -0.74009967
-46.952168 84.271996 -0.9576087
-42.014908 84.265213 -0.80954099
-41.592937 84.113243 -0.5863775
-41.235943 84.223717 -0.66971076
-40.747681 84.409126 -0.67420125
-40.028393 84.445511 -0.74423248
-39.816357 84.297989 -0.84132195
-39.347622 84.464516 -0.65064818
-38.561947 84.083084 -0.8298375
-38.288086 84.379547 -0.91940689
-37.897522 84.133354 -0.82164478
-36.599583 84.06971 -0.93828255
-31.711168 84.164429 -0.64560091
-31.355751 84.246307 -0.79610205
-30.75263 84.337936 -0.61344779
-30.30024 84.282684 -0.79083627
-29.830744 84.292404 -0.86789626
-28.68524 84.085327 -0.95446652
-28.049908 84.227463 -0.91762394
-26.529903 84.254791 -0.9162848
-26.416618 84.281601 -0.80967063
-24.506165 84.119286 -0.63251352
-23.855852 84.329521 -0.55000949
-23.460253 84.311333 -0.64064956
-22.807175 84.152351 -0.5601148
-22.022675 84.181259 -0.99279577
-21.673103 84.235886 -0.6278134
-21.499435 84.207764 -0.67292982
-20.823418 84.234413 -0.72521353
-20.272285 84.018394 -0.60070324
-18.838068 84.327034 -0.67866516
-18.332176 84.296806 -0.72949469
-17.870197 84.397888 -0.58816242
-16.661621 84.209366 -0.95100313
-16.445257 84.484848 -0.82572567
-15.700592 84.183167 -0.75228518
-15.252942 84.288361 -0.73018736
-14.642009 84.245598 -0.63877589
-14.223402 84.233315 -0.74496353
-13.736788 84.251389 -0.76075315
-13.280827 84.315666 -0.79876333
-12.757519 84.262177 -0.72814077
-12.226811 84.362053 -0.75375044
-11.777084 84.274391 -0.76704323
-10.728549 84.282761 -0.75933063
-10.325418 84.264511 -0.75886726
-9.79568 84.257179 -0.65847784
-9.1735792 84.12307 -0.61827981
-8.713891 84.451721 -0.76729542
-8.4042244 84.299316 -0.69030166
-7.8877978 84.307167 -0.6476813
-7.2610817 84.24884 -0.6325345
-6.8159013 84.275879 -0.63048518
-6.2665539 84.26651 -0.72208613
-5.614141 84.327118 -0.74973035
-5.1658039 84.380768 -0.71654421
-4.8916965 84.125496 -0.67064124
-3.7614501 84.134003 -0.59535289
-3.2093556 84.456573 -0.56736708
-74.919556 84.576736 -0.83414596
-69.278824 84.591003 -0.82777792
-68.229973 84.592606 -0.72591966
-64.285088 84.993408 -0.94091272
-56.749069 84.526871 -0.97056192
-56.487328 84.987259 -0.92961127
-49.049107 84.566475 -0.98317337
-41.111919 84.781662 -0.61349458
-40.851513 84.744896 -0.71268129
-40.040295 84.620728 -0.72497249
-39.701504 84.693398 -0.82063824
-39.161701 84.775314 -0.5412035
-38.87627 84.788155 -0.80773813
-38.313286 84.915802 -0.70337343
-32.291233 84.938721 -0.7053833
-31.556799 84.693932 -0.60448122
-31.223995 84.693321 -0.70744711
-30.874678 84.867363 -0.54455227
-30.334061 84.547211 -0.77327657
-29.868662 84.78936 -0.69284135
