# .PCD v0.7 - Point Cloud Data file format
VERSION 0.7
FIELDS x y z
SIZE 4 4 4
TYPE F F F
COUNT 1 1 1
WIDTH 1423
HEIGHT 1
VIEWPOINT 0 0 0 1 0 0 0
POINTS 1423
DATA ascii
-101.40346 -32.037262 -0.41472411
-100.23307 -31.935459 -0.35074931
-100.08506 -31.964682 -0.48400202
-99.134949 -31.831755 -0.55452859
-98.911011 -32.083664 -0.58859444
-98.633324 -32.078403 -0.55753797
-98.328407 -32.036781 -0.54132754
-96.432396 -31.944319 -0.57840872
-96.135559 -32.027302 -0.56136227
-94.050789 -32.015255 -0.45320573
-93.778198 -31.914753 -0.4787913
-93.498558 -31.891129 -0.42111811
-93.093185 -31.930948 -0.4452599
-92.737366 -31.953938 -0.36318403
-92.578476 -31.859653 -0.40096438
-92.048584 -31.930048 -0.42919356
-91.600922 -31.927273 -0.43418178
-91.37822 -32.082314 -0.46173719
-91.167381 -31.995157 -0.50626045
-90.16526 -31.989422 -0.46640509
-89.942726 -32.005116 -0.52075011
-89.633797 -32.042236 -0.39268857
-89.375565 -32.011333 -0.40342739
-87.385277 -31.972816 -0.42266658
-87.237411 -31.974228 -0.4648115
-86.808594 -31.820385 -0.40405571
-86.514931 -31.829224 -0.48444858
-85.617233 -31.880964 -0.31391916
-69.630997 -32.038231 -0.47990391
-67.089516 -31.933229 -0.39941084
-66.598434 -31.8449 -0.35047749
-66.209366 -31.939774 -0.32529765
-65.24485 -31.986166 -0.47988176
-64.286781 -31.803898 -0.47030813
-61.814575 -32.008774 -0.53526378
-61.602917 -31.984638 -0.49052447
-61.380665 -31.972689 -0.48959363
-59.785042 -31.872038 -0.51616919
-58.980152 -31.827913 -0.45583445
-58.540619 -31.848801 -0.41521746
-58.351265 -31.897024 -0.50216079
-58.132484 -31.948002 -0.52978915
-31.54504 -31.969322 -0.52417403
9.5300894 -31.952309 -0.54459691
9.7833729 -31.952209 -0.48236257
-99.660904 -31.642756 -0.48318642
-99.503395 -31.645639 -0.42400542
-98.467705 -31.55617 -0.5776521
-97.799095 -31.554106 -0.52266222
-96.539627 -31.671116 -0.53119469
-95.582001 -31.756737 -0.57544506
-95.160194 -31.557302 -0.50017381
-95.067322 -31.563631 -0.53755385
-94.299049 -31.533215 -0.50683069
-94.04261 -31.588087 -0.4734875
-93.737289 -31.687323 -0.53192264
-93.529114 -31.685764 -0.433478
-93.079948 -31.63122 -0.52004105
-92.858932 -31.602985 -0.48236728
-92.564606 -31.687725 -0.49819118
-92.316071 -31.738846 -0.52627444
-91.941956 -31.708506 -0.41613957
-91.692955 -31.633463 -0.49499831
-90.070572 -31.75325 -0.41131833
-89.826881 -31.729906 -0.41059947
-89.548607 -31.660408 -0.32453954
-88.303421 -31.599579 -0.44011092
-87.831284 -31.56053 -0.5471496
-87.408661 -31.63064 -0.38022605
-87.261276 -31.749174 -0.48440769
-86.884377 -31.60174 -0.37152138
-86.035744 -31.522623 -0.42622146
-84.093941 -31.544867 -0.41474125
-67.95652 -31.63159 -0.57171053
-66.588455 -31.550066 -0.46748036
-65.593628 -31.706713 -0.39920622
-64.38324 -31.78166 -0.41562161
-63.982334 -31.783245 -0.4269754
-62.23415 -31.602701 -0.38845062
-58.289433 -31.624672 -0.58599478
-57.97496 -31.606989 -0.54583776
-55.814941 -31.568485 -0.59394997
-55.773556 -31.560291 -0.59074521
-24.196302 -31.651516 -0.53363085
8.526557 -31.579073 -0.59896719
9.1320314 -31.623684 -0.58336657
9.5096674 -31.675058 -0.4524385
9.6546116 -31.655064 -0.46834287
-101.62059 -31.41573 -0.54991764
-100.10836 -31.387709 -0.42106679
-99.068298 -31.230642 -0.5539493
-98.985489 -31.230392 -0.57581723
-98.226089 -31.410891 -0.56827837
-95.26284 -31.338144 -0.46151686
-94.353973 -31.478298 -0.55123079
-93.882576 -31.450628 -0.37164769
-93.114838 -31.324856 -0.40858769
-92.818924 -31.270226 -0.53993624
-92.62928 -31.332838 -0.4875277
-92.163612 -31.288652 -0.41718397
-91.873665 -31.283026 -0.54838675
-91.676941 -31.285517 -0.43187428
-91.335243 -31.316618 -0.44009244
-90.495575 -31.273331 -0.54101837
-90.038803 -31.352364 -0.49454296
-89.79039 -31.421103 -0.35512763
-89.605324 -31.39329 -0.39829347
-89.192703 -31.330677 -0.44361132
-88.967537 -31.354708 -0.4115465
-88.663666 -31.354626 -0.40239632
-88.391075 -31.487442 -0.41752014
-88.050262 -31.455235 -0.53754294
-87.788124 -31.379221 -0.33523244
-87.541962 -31.405527 -0.35837948
-86.737869 -31.206068 -0.35373116
-86.593483 -31.330725 -0.39634022
-86.266747 -31.260979 -0.34407884
-85.81842 -31.22941 -0.46672606
-85.78907 -31.24692 -0.52495581
-83.988251 -31.205698 -0.30016252
-71.291603 -31.32852 -0.55999511
-70.255127 -31.4877 -0.55616784
-70.157959 -31.44722 -0.5896939
-67.085968 -31.406645 -0.5213089
-64.578003 -31.366081 -0.43897831
-61.885929 -31.276312 -0.34903514
-61.02845 -31.395098 -0.42051658
-60.836655 -31.364422 -0.4851068
-60.230145 -31.373587 -0.47962272
-59.577888 -31.300484 -0.44661617
-58.888435 -31.325708 -0.44971395
-58.778862 -31.364609 -0.54278827
-55.962467 -31.443075 -0.37547857
-55.638229 -31.486456 -0.42574251
-55.071835 -31.301617 -0.44232923
-22.806725 -31.437201 -0.52581608
-22.145399 -31.464291 -0.56594533
-20.32061 -31.304768 -0.55953777
21.707737 -31.339268 -0.51926231
-101.43053 -31.185703 -0.41730291
-101.30852 -31.029858 -0.32947999
-100.33638 -31.048294 -0.34170869
-99.943451 -30.929138 -0.54700434
-99.831841 -30.90316 -0.5311355
-98.063858 -31.104324 -0.52657187
-96.72963 -31.161217 -0.57414615
-95.520767 -30.927588 -0.4989801
-93.84436 -30.92375 -0.41638669
-93.551682 -31.166124 -0.46711445
-93.155762 -31.030981 -0.51127535
-92.238914 -31.117674 -0.46198985
-91.944206 -31.188662 -0.51371855
-91.566963 -31.094486 -0.49772447
-91.394791 -31.012905 -0.48605585
-90.744995 -30.963263 -0.50307655
-90.500587 -31.039837 -0.42066365
-90.167618 -30.941727 -0.46000022
-89.798302 -31.029581 -0.44118467
-89.555878 -31.006516 -0.44220996
-89.261345 -31.027126 -0.43487525
-88.896706 -31.137926 -0.35965014
-88.641998 -31.055536 -0.43068287
-88.384727 -30.983305 -0.44920853
-88.022545 -31.028046 -0.34643459
-87.659035 -31.106735 -0.35220066
-87.448059 -31.041496 -0.41843426
-86.904274 -30.997156 -0.41115141
-86.538704 -31.081755 -0.41001651
-86.323586 -31.079527 -0.38999879
-85.996666 -31.114954 -0.37494001
-85.721146 -31.194351 -0.34738803
-85.020317 -30.952187 -0.35001802
-84.446655 -30.947113 -0.32219616
-83.536705 -30.925735 -0.31459814
-81.536476 -30.944185 -0.40426478
-67.004677 -31.095976 -0.48372617
-65.172668 -30.978357 -0.41927418
-64.477989 -31.189035 -0.52829558
-63.136986 -31.031118 -0.50189453
-62.90855 -31.05868 -0.45118442
-62.237972 -30.913668 -0.56640166
-61.328087 -30.941986 -0.43794516
-60.13221 -30.975445 -0.39100099
-59.85775 -31.048281 -0.45129371
-59.300175 -31.200001 -0.42363822
-58.975071 -31.17391 -0.54972512
-57.350769 -30.974787 -0.43763846
-57.06517 -31.113602 -0.408622
-56.717278 -30.998325 -0.4502027
-56.636013 -31.046354 -0.5071876
-55.852722 -31.078756 -0.51081467
-55.612427 -30.925171 -0.53217077
-50.265991 -30.901651 -0.5194366
-22.456028 -31.191446 -0.48121694
8.9662447 -31.001932 -0.48373556
9.76929 -31.032999 -0.56529367
10.027273 -31.089016 -0.50580674
-100.25929 -30.797256 -0.4507741
-100.09399 -30.744806 -0.43605241
-99.748596 -30.756861 -0.55670679
-97.247803 -30.731903 -0.4720282
-96.679565 -30.776228 -0.53834939
-95.722321 -30.640383 -0.47844559
-93.703453 -30.759764 -0.49369457
-93.489349 -30.778191 -0.52838689
-93.006218 -30.757713 -0.54454339
-91.650063 -30.663033 -0.37469494
-91.351723 -30.73768 -0.45411921
-91.127136 -30.629654 -0.30275795
-90.724335 -30.652821 -0.41518724
-90.470528 -30.774723 -0.47860998
-90.287201 -30.767368 -0.53763539
-89.75531 -30.850708 -0.47019336
-89.505417 -30.824493 -0.47932571
-89.306633 -30.83523 -0.3977797
-88.953804 -30.775263 -0.47941437
-88.505318 -30.676949 -0.48832309
-88.35817 -30.731274 -0.44355959
-88.144768 -30.689829 -0.36282
-87.725815 -30.764036 -0.38185441
-87.353012 -30.795738 -0.43338397
-87.187775 -30.777353 -0.31567699
-86.793449 -30.801598 -0.38544834
-86.48159 -30.697239 -0.43159318
-86.313377 -30.754492 -0.42810988
-85.862389 -30.614857 -0.32443014
-85.608002 -30.634724 -0.38452598
-84.996559 -30.813271 -0.40706947
-84.764709 -30.750776 -0.38614666
-84.381592 -30.735559 -0.38822827
-84.030029 -30.730965 -0.34773204
-83.891586 -30.712971 -0.57263601
-83.505211 -30.716969 -0.34312987
-64.628441 -30.67555 -0.46892703
-62.502998 -30.805977 -0.5288173
-61.908421 -30.75613 -0.51739681
-61.100796 -30.82016 -0.57082695
-60.756577 -30.674286 -0.35652772
-60.302654 -30.794746 -0.51884055
-60.124664 -30.786858 -0.51566005
-59.530045 -30.66305 -0.54557192
-59.228462 -30.665789 -0.48528805
-58.827133 -30.720753 -0.53058398
-58.683178 -30.652996 -0.40840858
-58.076572 -30.629967 -0.38166896
-57.893066 -30.700407 -0.3118566
-57.43576 -30.868176 -0.46884465
-57.087387 -30.762367 -0.45337868
-55.576115 -30.758751 -0.39636844
-55.336388 -30.761021 -0.51389384
-54.981384 -30.809906 -0.43306226
-54.038681 -30.681164 -0.58004355
-52.967354 -30.820242 -0.51324821
-52.365219 -30.658054 -0.57397169
-52.004887 -30.810982 -0.48648867
-50.407646 -30.882185 -0.55126601
-24.343464 -30.738321 -0.58143175
-23.890032 -30.765671 -0.57496697
-22.959824 -30.660145 -0.51036882
-22.642477 -30.745293 -0.55266482
-22.041307 -30.703819 -0.57100815
-21.799715 -30.710184 -0.56234467
-21.343225 -30.716187 -0.54467696
-21.126665 -30.834362 -0.51586026
-20.057142 -30.825562 -0.49855122
9.8423882 -30.821281 -0.46474004
9.941988 -30.79184 -0.52627987
-102.05839 -30.472521 -0.58797127
-101.8231 -30.395357 -0.47925913
-101.60707 -30.526789 -0.40163851
-97.735664 -30.310127 -0.59114182
-95.127747 -30.422457 -0.59165198
-95.057869 -30.435547 -0.56983376
-94.704048 -30.539103 -0.52566093
-93.974594 -30.504932 -0.5195055
-93.744469 -30.4916 -0.51915377
-93.505402 -30.46788 -0.5434286
-92.475533 -30.404495 -0.50104517
-92.343307 -30.429289 -0.55254883
-91.872398 -30.52095 -0.45852709
-91.667404 -30.582386 -0.45759702
-91.320526 -30.379389 -0.52217293
-91.114655 -30.370731 -0.41231543
-90.713921 -30.501825 -0.48083276
-90.50251 -30.426889 -0.43278626
-90.200211 -30.34148 -0.54830325
-89.752167 -30.377277 -0.49709785
-89.569405 -30.456028 -0.57408309
-89.147575 -30.376524 -0.3857801
-88.982605 -30.484552 -0.40365684
-88.758675 -30.325552 -0.58478826
-87.8909 -30.322712 -0.55694121
-87.318497 -30.355709 -0.35549867
-86.757675 -30.407265 -0.3980301
-86.621483 -30.408348 -0.46243128
-86.286171 -30.446815 -0.39901373
-85.971695 -30.512579 -0.38542789
-85.606216 -30.465614 -0.32141429
-85.356041 -30.557737 -0.4963375
-85.16037 -30.44426 -0.3368597
-84.620644 -30.571352 -0.48381913
-84.147301 -30.445906 -0.43249413
-83.926468 -30.456951 -0.40399849
-83.575203 -30.558933 -0.34034026
-62.923439 -30.520971 -0.48196346
-62.195892 -30.563457 -0.53450459
-59.702606 -30.316875 -0.57028866
-59.68008 -30.338112 -0.58921605
-59.373875 -30.334507 -0.58186138
-58.622124 -30.561352 -0.40265059
-58.328442 -30.594337 -0.54360723
-57.953835 -30.484995 -0.32264566
-57.573128 -30.430115 -0.38974041
-57.286995 -30.58659 -0.44418859
-55.835369 -30.448318 -0.40792406
-55.561966 -30.343931 -0.5077194
-55.409378 -30.556673 -0.3268466
-54.813225 -30.469503 -0.47769478
-53.290672 -30.570412 -0.49893397
-24.353077 -30.40921 -0.57772273
-24.085197 -30.52326 -0.49313387
-23.181 -30.411745 -0.57785243
-22.99725 -30.451633 -0.56908685
-22.596703 -30.443991 -0.58515936
-22.064285 -30.478485 -0.4999817
-20.981838 -30.415087 -0.50428414
-20.554981 -30.322048 -0.53153586
-19.240349 -30.371828 -0.56937778
-19.12566 -30.325096 -0.5626381
9.1723232 -30.32843 -0.35289741
9.3732204 -30.360973 -0.55735987
10.396116 -30.465443 -0.57941276
-101.82438 -30.187647 -0.53901643
-100.32173 -30.131662 -0.33751205
-99.370346 -30.173729 -0.59371817
-98.863037 -30.130957 -0.464753
-95.427704 -30.078354 -0.53315312
-95.219696 -30.158747 -0.5177213
-95.089226 -30.232332 -0.41162163
-94.754082 -30.066326 -0.5981226
-94.067123 -30.137411 -0.36749643
-93.690392 -30.22756 -0.58700061
-93.34964 -30.182131 -0.52910668
-93.158325 -30.130751 -0.53945446
-92.909134 -30.09334 -0.55710179
-91.808647 -30.186522 -0.38511056
-91.701935 -30.199945 -0.40153113
-91.376564 -30.213446 -0.43069145
-90.358261 -30.19569 -0.5232203
-90.063217 -30.261963 -0.54918355
-89.816856 -30.175985 -0.50081569
-89.557892 -30.240149 -0.43803555
-89.205826 -30.109781 -0.49151054
-88.993065 -30.114704 -0.38728166
-88.601669 -30.161533 -0.48379636
-88.366241 -30.174604 -0.45794246
-87.792084 -30.143824 -0.41164029
-87.392853 -30.220589 -0.43188033
-87.1101 -30.150566 -0.39152172
-86.885887 -30.168137 -0.41493481
-86.533508 -30.116016 -0.39795595
-85.989418 -30.082947 -0.36395362
-85.62603 -30.066433 -0.42800167
-85.429497 -30.135334 -0.34915978
-85.139366 -30.16802 -0.37757525
-84.629242 -30.081104 -0.41840717
-84.507858 -30.167343 -0.36847413
-84.211052 -30.145418 -0.33898234
-83.886429 -30.183149 -0.45461842
-83.475121 -30.264023 -0.37328282
-83.324791 -30.269018 -0.38738298
-82.47641 -30.068729 -0.401559
-63.373592 -30.060074 -0.5581494
-60.312222 -30.253633 -0.49012041
-60.138283 -30.107779 -0.40912658
-59.820202 -30.019667 -0.50382543
-56.804733 -30.121407 -0.40935242
-53.180283 -30.030727 -0.50213498
-51.841419 -30.102453 -0.48305702
-51.523205 -30.129835 -0.56877238
-50.814392 -30.241611 -0.57288384
-50.651592 -30.27199 -0.54814869
-50.109463 -30.08539 -0.44699511
-45.756962 -30.126665 -0.53570694
-22.629423 -30.101633 -0.54179662
-22.325096 -30.077961 -0.534361
-22.150358 -30.230631 -0.49160346
-21.690819 -30.108713 -0.56025702
-21.451584 -30.066769 -0.5580411
-21.172428 -30.130665 -0.58963901
-20.049549 -30.002239 -0.57814521
-18.805496 -30.201561 -0.56898522
-16.885061 -30.159698 -0.48381832
9.2797279 -30.114902 -0.41163754
9.4367485 -30.06937 -0.48465371
21.592253 -30.245893 -0.38699946
21.850214 -30.122438 -0.57502657
-100.13803 -29.795719 -0.54491341
-99.056595 -29.821447 -0.46043071
-98.57415 -29.819695 -0.49202758
-97.256554 -29.973495 -0.51636487
-95.40155 -29.859833 -0.54508042
-94.739548 -29.730663 -0.54812348
-93.075974 -29.801964 -0.53754056
-92.846481 -29.71637 -0.50529104
-91.907379 -29.956615 -0.53281432
-91.511131 -29.926023 -0.53895056
-91.34182 -29.715094 -0.49055371
-91.04258 -29.770788 -0.50444329
-90.690529 -29.817436 -0.48665696
-90.533455 -29.971588 -0.41968814
-90.207138 -29.895626 -0.56831348
-89.828133 -29.833557 -0.35719499
-89.50029 -29.757374 -0.30325907
-89.2258 -29.847918 -0.45150483
-88.985252 -29.843616 -0.40510207
-88.703079 -29.819668 -0.44036174
-88.453674 -29.822906 -0.46219587
-87.951782 -29.95639 -0.37740585
-87.7397 -29.75289 -0.482685
-87.459915 -29.745682 -0.46238101
-87.023293 -29.871346 -0.39166966
-86.856453 -29.842125 -0.4380953
-86.54377 -29.826021 -0.40938327
-86.22683 -29.854395 -0.43042523
-85.889008 -29.897726 -0.36576331
-85.669273 -29.874819 -0.35971814
-85.350899 -29.875427 -0.36156657
-84.929108 -29.863791 -0.41033208
-84.779251 -29.861908 -0.39895692
-84.112854 -29.888111 -0.38030812
-83.426521 -29.755144 -0.31952989
-82.27066 -29.729095 -0.41824698
-81.97036 -29.826206 -0.43173254
-81.886772 -29.783943 -0.36814055
-81.175095 -29.883835 -0.4192974
-80.312103 -29.776909 -0.31383923
-60.836788 -29.931059 -0.39918542
-60.177269 -29.732548 -0.52738571
-58.933064 -29.787981 -0.42841613
-57.846535 -29.727406 -0.56806457
-55.352207 -29.719597 -0.47184309
-55.143997 -29.760422 -0.4287504
-53.16972 -29.726486 -0.55262631
-52.244152 -29.887207 -0.56104189
-52.094933 -29.829735 -0.51193285
-51.17981 -29.986301 -0.56857228
-47.102726 -29.728502 -0.46321648
-44.889534 -29.778528 -0.58503884
-22.621822 -29.968773 -0.54159486
-21.704884 -29.858612 -0.58886778
-20.334545 -29.797653 -0.58799374
-19.882519 -29.92218 -0.59072256
-19.321609 -29.824066 -0.53710443
-18.399879 -29.731703 -0.56638944
9.6565418 -29.944515 -0.48353627
21.474773 -29.776506 -0.45226544
-100.23232 -29.602663 -0.47936454
-100.14982 -29.618759 -0.47193283
-97.986526 -29.491482 -0.46343222
-95.356522 -29.479301 -0.35701096
-94.601074 -29.555515 -0.5065406
-94.057587 -29.507111 -0.4189586
-93.892075 -29.506191 -0.38015452
-93.066132 -29.494972 -0.50607592
-92.832993 -29.615269 -0.48271918
-91.363152 -29.679998 -0.38165247
-91.095924 -29.572065 -0.5338046
-90.760788 -29.649555 -0.39678791
-89.173927 -29.549715 -0.46897915
-88.921341 -29.576223 -0.46325117
-88.737488 -29.454926 -0.48304799
-88.262581 -29.543446 -0.36276975
-88.1418 -29.513243 -0.35561791
-87.735695 -29.581985 -0.45512822
-87.400253 -29.611561 -0.42989007
-87.155853 -29.603052 -0.44160053
-86.91655 -29.608862 -0.40782577
-86.641136 -29.635607 -0.38916609
-86.185448 -29.542507 -0.44557291
-85.624763 -29.514786 -0.35810572
-85.367088 -29.559753 -0.35491997
-85.06263 -29.519663 -0.42039266
-84.797722 -29.5837 -0.42337644
-83.953072 -29.40827 -0.30796131
-83.341507 -29.590897 -0.44012505
-82.990173 -29.538519 -0.35148549
-82.27832 -29.493057 -0.5378238
-81.861427 -29.553577 -0.34434617
-81.483498 -29.404541 -0.56477123
-81.252533 -29.677149 -0.32110861
-80.470482 -29.631773 -0.31091189
-80.314552 -29.518539 -0.50884062
-78.526939 -29.570135 -0.42014542
-77.504532 -29.650272 -0.38830751
-58.532867 -29.460632 -0.54750395
-54.513847 -29.47768 -0.47066113
-53.956295 -29.417402 -0.45982054
-53.517742 -29.630842 -0.53029096
-53.379757 -29.591557 -0.575607
-52.893833 -29.533621 -0.49264112
-51.74007 -29.663078 -0.5385493
-49.204384 -29.451881 -0.49859539
-42.628185 -29.434124 -0.53153372
-42.529587 -29.435595 -0.5512687
-23.790707 -29.653206 -0.53150415
-22.985437 -29.672136 -0.55601805
-22.640371 -29.601641 -0.56896967
-21.540323 -29.408983 -0.51926124
-19.438173 -29.605444 -0.54655272
-19.165323 -29.401592 -0.49873143
-16.719278 -29.6189 -0.58382511
-16.318834 -29.41119 -0.58633822
-15.666984 -29.426737 -0.59555513
-13.290151 -29.578518 -0.44279987
10.081992 -29.5257 -0.44688118
10.581562 -29.419527 -0.59525561
-100.33213 -29.17627 -0.48283967
-98.170403 -29.315018 -0.55954146
-97.886688 -29.304417 -0.48413113
-96.803436 -29.374498 -0.59083784
-93.758324 -29.302376 -0.5565961
-93.007065 -29.26469 -0.56326419
-92.734985 -29.332188 -0.56244922
-91.946167 -29.18331 -0.52041155
-90.98082 -29.309826 -0.40645158
-90.784676 -29.165051 -0.47111529
-89.577843 -29.228445 -0.37387165
-89.248466 -29.220276 -0.52040547
-88.934097 -29.221628 -0.46366748
-88.607468 -29.269476 -0.4953177
-88.450714 -29.319866 -0.50453007
-87.752632 -29.373581 -0.30653006
-87.002892 -29.293488 -0.35083044
-86.85585 -29.375942 -0.39608696
-86.548653 -29.240284 -0.38443494
-86.356812 -29.31735 -0.30208728
-85.950577 -29.322388 -0.38556516
-85.558716 -29.23312 -0.39337009
-85.337944 -29.210314 -0.36541367
-85.028847 -29.298401 -0.37387249
-84.79129 -29.252449 -0.36114132
-84.438637 -29.204338 -0.41148037
-84.140366 -29.268669 -0.31570649
-83.840378 -29.273508 -0.41843686
-83.610329 -29.240107 -0.31682846
-83.296738 -29.252861 -0.447438
-83.03717 -29.36668 -0.34034199
-82.400826 -29.250074 -0.59082335
-81.51004 -29.326378 -0.53462851
-81.212875 -29.322618 -0.32723659
-80.821251 -29.20047 -0.33436525
-80.14846 -29.388241 -0.38540536
-80.06813 -29.384624 -0.33844376
-79.582314 -29.120325 -0.51575428
-59.045044 -29.386963 -0.46331811
-55.311485 -29.157249 -0.5452283
-54.653122 -29.109907 -0.59203845
-53.81562 -29.208694 -0.39336106
-53.262585 -29.110144 -0.4024311
-52.348194 -29.290541 -0.52941793
-50.380009 -29.280695 -0.57345194
-49.687168 -29.186539 -0.42466563
-48.005527 -29.266954 -0.59328699
-47.859856 -29.341322 -0.52741855
-47.019112 -29.232113 -0.57257986
-44.129898 -29.221788 -0.50093353
-42.047993 -29.210232 -0.59378433
-21.200378 -29.292713 -0.56615448
-19.304003 -29.130413 -0.4842639
-19.043518 -29.218092 -0.51701009
-17.242353 -29.194534 -0.5401777
-15.668943 -29.230097 -0.53276652
-15.484365 -29.239418 -0.51442468
-15.287546 -29.208069 -0.53059477
-13.202719 -29.135784 -0.57363331
10.460023 -29.330719 -0.57463688
20.693558 -29.366346 -0.415407
-95.436447 -29.030495 -0.56398815
-95.372734 -28.869419 -0.49343163
-94.017265 -29.091528 -0.41389808
-92.489418 -29.083132 -0.54397607
-91.627502 -28.817749 -0.48875618
-91.354385 -28.881693 -0.56924957
-91.125763 -28.973389 -0.49943742
-89.856285 -28.954971 -0.41231406
-89.602905 -28.843887 -0.39853013
-89.245949 -28.916359 -0.48681444
-88.957405 -28.930382 -0.46253401
-88.687904 -29.018795 -0.44478276
-88.269569 -28.999327 -0.38377193
-87.964195 -28.923935 -0.51063591
-87.015175 -29.004715 -0.33365646
-86.819153 -28.957729 -0.39444584
-85.575806 -28.980448 -0.38643545
-85.330238 -29.050987 -0.31239259
-85.143066 -28.865662 -0.43267021
-84.68647 -28.970215 -0.33602858
-84.509949 -28.848459 -0.39347088
-84.055115 -29.018456 -0.57522178
-83.941727 -28.990391 -0.46510953
-83.609604 -29.082609 -0.48760208
-83.172089 -28.835815 -0.38194311
-82.86908 -28.970242 -0.58141428
-82.680687 -28.819893 -0.39969003
-82.303291 -28.93952 -0.34580588
-82.042145 -28.834724 -0.31451967
-81.742996 -29.0508 -0.37362492
-81.018349 -29.018311 -0.38587373
-80.891197 -29.002974 -0.44666824
-79.456619 -29.090082 -0.43815449
-76.052147 -28.888411 -0.43254107
-55.872253 -29.067671 -0.52829808
-55.793137 -28.84885 -0.47679126
-54.153206 -28.882244 -0.52275926
-51.417667 -29.01655 -0.56145561
-51.285038 -28.994419 -0.52858901
-50.486862 -28.999208 -0.58126229
-50.248531 -28.824966 -0.5550124
-50.018188 -28.902109 -0.4459213
-47.395874 -28.863779 -0.50119865
-46.724014 -28.904413 -0.47814089
-45.681274 -28.874975 -0.36473757
-44.68668 -28.943718 -0.49104959
-44.367489 -28.834818 -0.42678961
-21.784876 -28.967178 -0.53373533
-21.333515 -28.962753 -0.5869444
-18.97971 -28.846134 -0.57655048
-15.082161 -28.850168 -0.5930261
-14.523203 -28.897678 -0.57831544
-14.272551 -28.874401 -0.54692543
22.004227 -28.816999 -0.30377352
-96.376366 -28.762476 -0.58810747
-94.589478 -28.789873 -0.59131724
-91.560501 -28.62085 -0.42136165
-91.235199 -28.57338 -0.4622367
-91.099548 -28.605339 -0.43952572
-90.779625 -28.676828 -0.55110079
-90.514801 -28.5082 -0.55976695
-90.120483 -28.621941 -0.46466109
-89.944473 -28.589874 -0.45824105
-89.522034 -28.611216 -0.53871852
-89.115608 -28.758726 -0.56813478
-88.99337 -28.690216 -0.49117747
-88.675804 -28.7143 -0.45239702
-88.414391 -28.696848 -0.4640362
-88.19709 -28.611729 -0.44981742
-87.475685 -28.713284 -0.52234387
-87.004288 -28.610682 -0.48178336
-85.882057 -28.64415 -0.45346904
-85.620338 -28.625965 -0.36054981
-85.404694 -28.748203 -0.43338901
-84.968819 -28.705776 -0.33383313
-84.829788 -28.645212 -0.35490143
-83.608673 -28.63266 -0.34531772
-83.15535 -28.76391 -0.42544019
-82.935226 -28.771414 -0.38614154
-78.996918 -28.544863 -0.36707819
-78.870132 -28.510042 -0.40108135
-78.433922 -28.793173 -0.38501835
-78.10202 -28.584772 -0.49389735
-57.662216 -28.783026 -0.46970227
-57.570747 -28.751724 -0.49526986
-52.483803 -28.689726 -0.54689705
-49.567326 -28.583124 -0.54487002
-49.308193 -28.683365 -0.52079695
-47.974262 -28.575375 -0.52061421
-44.463314 -28.515522 -0.56485611
-44.283424 -28.74765 -0.47320113
-42.941402 -28.707199 -0.47627845
-19.119322 -28.712414 -0.57796359
-17.879053 -28.74493 -0.54817224
-17.374136 -28.636997 -0.42091328
-17.053848 -28.606272 -0.56683636
-16.113138 -28.54262 -0.50996888
-11.70225 -28.611551 -0.50923425
-93.368408 -28.359936 -0.50810957
-92.199127 -28.308929 -0.59560901
-91.851479 -28.241953 -0.59087425
-91.799301 -28.433939 -0.582932
-91.240479 -28.4422 -0.51302332
-91.134964 -28.4963 -0.51430267
-87.499916 -28.371525 -0.33259824
-86.828835 -28.433058 -0.38431478
-86.609062 -28.377401 -0.51057613
-85.226761 -28.390553 -0.50480998
-85.12146 -28.390806 -0.48213828
-84.810654 -28.237816 -0.44437832
-84.330688 -28.463985 -0.34624612
-82.906807 -28.274982 -0.4245863
-82.704582 -28.260494 -0.40098593
-80.537918 -28.459551 -0.54504186
-80.316971 -28.377003 -0.39498836
-78.530884 -28.495098 -0.38340977
-77.96743 -28.236404 -0.47483188
-77.518311 -28.364439 -0.4086186
-77.015549 -28.298157 -0.36496359
-76.595253 -28.200884 -0.43542299
-74.590401 -28.252289 -0.45692831
-73.632454 -28.354713 -0.33125073
-73.474838 -28.310436 -0.33592084
-69.059059 -28.281883 -0.34020981
-51.139454 -28.47382 -0.48658824
-50.204002 -28.224216 -0.52954561
-50.092476 -28.310778 -0.51230049
-49.37384 -28.379509 -0.55019075
-48.533329 -28.426424 -0.57196325
-47.651985 -28.413311 -0.58662814
-46.635838 -28.404274 -0.56607127
-42.408604 -28.260878 -0.5338946
-18.450729 -28.375534 -0.51978588
-18.06468 -28.331177 -0.54180431
-15.748017 -28.265045 -0.49521536
-13.169105 -28.404943 -0.55385995
-12.189461 -28.390224 -0.51073998
-10.978115 -28.355244 -0.58114839
-9.9621506 -28.24332 -0.54902953
-9.8590679 -28.232704 -0.55966783
-90.693199 -27.97591 -0.56455231
-90.028969 -28.007164 -0.56615543
-89.732971 -28.155285 -0.46008903
-89.675697 -28.181501 -0.4394252
-85.938774 -27.912413 -0.59878272
-85.69117 -28.007008 -0.53311086
-85.357803 -28.074379 -0.39864704
-85.147423 -28.021248 -0.52263796
-83.000397 -27.936359 -0.39115152
-82.567307 -28.060589 -0.46663198
-82.263985 -28.130602 -0.40706518
-82.073204 -28.076647 -0.34532341
-81.359108 -27.953033 -0.36600974
-81.293739 -27.956539 -0.32702765
-80.845177 -28.039728 -0.30818182
-80.236031 -27.938093 -0.32484981
-78.858109 -28.007483 -0.35292923
-78.43132 -28.009268 -0.35252613
-77.449463 -27.999369 -0.42473754
-77.314423 -28.008896 -0.40411487
-77.058586 -27.995016 -0.38116917
-75.375458 -28.021519 -0.3974036
-74.824837 -28.001163 -0.32140934
-74.549126 -27.940323 -0.35802099
-74.37381 -27.901585 -0.362151
-73.394302 -28.005297 -0.34387785
-72.260246 -28.156719 -0.49945343
-71.98893 -27.971138 -0.41229397
-69.005257 -28.11418 -0.36158124
-68.982559 -28.164871 -0.30355963
-51.313953 -27.988281 -0.41137144
-50.593796 -28.078028 -0.4490886
-49.30162 -28.049656 -0.56502587
-49.092266 -27.916016 -0.51335919
-48.643986 -28.112057 -0.55572963
-48.450489 -27.988802 -0.51385373
-48.252048 -28.129114 -0.4789075
-46.309494 -28.182041 -0.52824628
-46.060394 -28.167706 -0.52538162
-44.741409 -27.913113 -0.46050918
-37.968887 -27.956604 -0.5097664
-15.754869 -28.05335 -0.5237059
-14.789433 -28.141073 -0.59778541
-14.393516 -28.154114 -0.56957668
-13.762459 -27.97707 -0.57638729
-13.284901 -28.012791 -0.59794778
-12.128077 -28.033775 -0.54824686
-92.920509 -27.709009 -0.49632454
-92.630974 -27.875019 -0.56824374
-92.238541 -27.791132 -0.53954256
-90.471184 -27.657093 -0.57679045
-88.485146 -27.860626 -0.55221277
-85.91658 -27.797678 -0.48441944
-85.425262 -27.842525 -0.36157131
-84.038963 -27.743591 -0.38770634
-83.845787 -27.712282 -0.4444809
-83.310287 -27.739689 -0.49551183
-83.00251 -27.730915 -0.45256341
-82.080765 -27.844118 -0.37476608
-81.811455 -27.802017 -0.38458705
-81.244423 -27.731514 -0.33614385
-80.815872 -27.628565 -0.59316862
-80.40152 -27.621758 -0.42907265
-79.91954 -27.848249 -0.37061846
-79.647858 -27.793652 -0.37732583
-79.340309 -27.831612 -0.37604883
-79.019608 -27.73967 -0.45933282
-78.779518 -27.76038 -0.33185956
-78.033913 -27.823612 -0.4441731
-77.848831 -27.729794 -0.42018998
-77.640182 -27.775127 -0.3640621
-77.333626 -27.891481 -0.46648189
-76.979507 -27.702595 -0.34577784
-76.667061 -27.770176 -0.37421435
-76.22789 -27.704189 -0.45325214
-76.186401 -27.700645 -0.45904011
-75.395752 -27.800632 -0.381455
-74.470818 -27.7446 -0.35551116
-74.31955 -27.805336 -0.36153638
-73.515923 -27.895342 -0.31510657
-72.552757 -27.835579 -0.30595699
-72.180817 -27.81896 -0.46686733
-71.966011 -27.871311 -0.33693409
-71.269394 -27.649906 -0.3183431
-66.534126 -27.639912 -0.42171213
-50.052597 -27.761351 -0.43988451
-49.006058 -27.872663 -0.5282495
-48.821636 -27.725506 -0.48475915
-48.126202 -27.897329 -0.548621
-47.802185 -27.849281 -0.57622546
-47.494209 -27.762501 -0.51922959
-46.271893 -27.603083 -0.56346309
-45.076855 -27.796932 -0.4514589
-43.089314 -27.806385 -0.53609109
-38.937546 -27.74823 -0.50852066
-38.462616 -27.836811 -0.5660271
-38.389061 -27.836744 -0.3818551
-17.88797 -27.613562 -0.5827927
-15.176398 -27.853384 -0.5562067
-14.491214 -27.612103 -0.47988445
-14.366868 -27.719337 -0.53650016
-11.426156 -27.898808 -0.59358835
-10.028646 -27.735355 -0.59219003
-9.2678919 -27.833954 -0.53146613
-8.1632929 -27.652647 -0.58824515
-7.8910799 -27.60013 -0.55505431
-94.326607 -27.329563 -0.53744406
-93.404572 -27.546228 -0.51015288
-91.379822 -27.582682 -0.4153339
-91.071609 -27.569725 -0.5199064
-87.833305 -27.454872 -0.56458443
-85.66481 -27.55257 -0.44487098
-85.359261 -27.463726 -0.45760098
-84.375717 -27.534002 -0.39602467
-83.292145 -27.396233 -0.56003851
-82.906906 -27.545799 -0.43395418
-82.618172 -27.458521 -0.43402091
-82.353836 -27.368223 -0.43054619
-81.938095 -27.446014 -0.36809939
-81.664261 -27.337503 -0.41512811
-81.340408 -27.374252 -0.45104122
-81.121666 -27.437368 -0.3847695
-80.91256 -27.478603 -0.56746471
-79.893707 -27.342144 -0.30670086
-79.68766 -27.37538 -0.38743293
-79.036942 -27.568981 -0.46878892
-78.891266 -27.540758 -0.4453944
-77.86129 -27.458548 -0.32535517
-77.233032 -27.462914 -0.34790018
-76.883614 -27.458555 -0.3408106
-76.630409 -27.572426 -0.35775042
-76.427246 -27.526838 -0.35242191
-76.133415 -27.560547 -0.394319
-75.697426 -27.516693 -0.38022861
-75.482254 -27.430651 -0.38211295
-75.205139 -27.378809 -0.56176394
-74.932327 -27.304029 -0.38133526
-73.906776 -27.415628 -0.38724124
-73.699989 -27.34901 -0.39711785
-72.994392 -27.469149 -0.44105947
-72.465729 -27.490175 -0.5315879
-71.544884 -27.441805 -0.47916433
-49.505554 -27.349823 -0.49743137
-46.712837 -27.54764 -0.50008518
-46.074825 -27.304266 -0.57508397
-44.887516 -27.34281 -0.47039962
-43.935635 -27.35763 -0.50023073
-42.72496 -27.506838 -0.52874619
-38.634605 -27.350071 -0.54626673
-10.002792 -27.348703 -0.58871692
-7.2093 -27.480385 -0.59364706
-6.9906578 -27.44606 -0.5932737
-91.840965 -27.013224 -0.55455184
-91.572845 -27.075457 -0.49265265
-91.422356 -27.212063 -0.49749005
-91.089867 -27.074484 -0.49793592
-90.625435 -27.026495 -0.59937352
-90.387108 -27.156885 -0.47983027
-87.486412 -27.11245 -0.52886552
-84.178635 -27.064777 -0.39590374
-83.913605 -27.059772 -0.37222195
-82.242607 -27.134239 -0.38755199
-82.076042 -27.089796 -0.41215372
-81.745544 -27.022093 -0.39971286
-81.289024 -27.279968 -0.3038795
-80.979927 -27.171984 -0.38957781
-80.646042 -27.133316 -0.34343907
-79.87233 -27.160776 -0.47962198
-79.783379 -27.168728 -0.33698213
-78.635956 -27.097652 -0.3094371
-77.420982 -27.223181 -0.30037615
-76.354225 -27.043793 -0.3913224
-76.188179 -27.130669 -0.41414568
-75.335426 -27.296854 -0.36363178
-75.243324 -27.282364 -0.34540933
-74.831223 -27.208328 -0.36284989
-74.606987 -27.092501 -0.38350883
-73.028595 -27.204475 -0.4295755
-72.768761 -27.146576 -0.38340139
-72.503006 -27.253595 -0.32732648
-71.552567 -27.262115 -0.57728684
-71.351471 -27.264719 -0.53542525
-69.81356 -27.113392 -0.30634046
-49.906872 -27.098949 -0.59837645
-49.682079 -27.010487 -0.45146266
-47.649712 -27.2577 -0.49932671
-45.860348 -27.097115 -0.53617358
-44.171638 -27.296762 -0.35423702
-42.543785 -27.15254 -0.54762852
-41.415134 -27.193548 -0.58788061
-37.565575 -27.010328 -0.55168402
-36.552711 -27.148148 -0.59560597
-35.492805 -27.285707 -0.56566602
-32.966999 -27.102411 -0.55439973
-14.74775 -27.146057 -0.54839092
-14.633637 -27.11755 -0.53087455
-92.442841 -26.933702 -0.49091321
-92.283066 -26.889858 -0.53557545
-91.90773 -26.976143 -0.59028125
-91.569702 -26.778732 -0.52255875
-91.359581 -26.963665 -0.43732196
-91.028954 -26.989868 -0.45838287
-90.641037 -26.877079 -0.53653479
-90.544769 -26.901703 -0.54420954
-86.86261 -26.885778 -0.41755185
-83.787666 -26.965967 -0.37089714
-82.347504 -26.871843 -0.3763541
-82.065392 -26.920263 -0.39657274
-81.818764 -26.724367 -0.34903431
-81.417328 -26.961788 -0.30778056
-80.519829 -26.972759 -0.43806899
-80.219963 -26.797634 -0.36166912
-79.890526 -26.98937 -0.37470153
-79.582146 -26.820501 -0.38296828
-79.374519 -26.859713 -0.40622887
-78.938896 -26.72823 -0.30591944
-78.438133 -26.753616 -0.35080341
-78.169586 -26.848806 -0.3389568
-77.944557 -26.811157 -0.40273833
-77.159027 -26.831738 -0.3655884
-76.857666 -26.862309 -0.31338179
-76.345795 -26.815329 -0.35290956
-75.687057 -26.759146 -0.40653488
-75.504433 -26.740017 -0.3945947
-74.101273 -26.854391 -0.38867727
-73.897682 -26.943579 -0.39283761
-71.656357 -26.942284 -0.50152665
-69.656837 -26.961946 -0.3296189
-65.437088 -26.720724 -0.47671738
-51.079025 -26.970575 -0.58940095
-45.545448 -26.717936 -0.54526317
-43.766796 -26.963362 -0.58201259
-42.714062 -26.911213 -0.57536644
-40.612907 -26.871706 -0.56875736
-40.258141 -26.79775 -0.56386697
-39.682766 -26.747065 -0.54962718
-39.366936 -26.999804 -0.55352688
-37.648518 -26.726871 -0.59139854
-13.936171 -26.869953 -0.53301078
-1.2946715 -26.941597 -0.37899277
-89.42453 -26.680367 -0.51018536
-88.882973 -26.54257 -0.42794782
-82.861824 -26.439043 -0.37782875
-82.41481 -26.500263 -0.46005145
-81.43251 -26.586378 -0.39863545
-81.210976 -26.68154 -0.48360685
-80.789619 -26.653875 -0.34698629
-80.645325 -26.693768 -0.32327712
-79.389275 -26.585165 -0.36710286
-79.160049 -26.625036 -0.42713767
-78.490555 -26.485691 -0.36586681
-78.122078 -26.516464 -0.3795768
-77.861099 -26.668621 -0.49578243
-77.326645 -26.450987 -0.43192583
-75.460045 -26.537638 -0.39715162
-75.181755 -26.557518 -0.48209321
-74.82383 -26.582495 -0.47865665
-74.009209 -26.500269 -0.41040871
-73.717682 -26.535912 -0.41222644
-71.870331 -26.514465 -0.45663315
-71.589111 -26.598684 -0.40666366
-69.477478 -26.679539 -0.37516668
-66.372223 -26.531288 -0.56683791
-66.278442 -26.408184 -0.55142927
-44.402164 -26.447168 -0.37683609
-40.678276 -26.681461 -0.4129293
-40.36776 -26.673462 -0.5059315
-38.011368 -26.531155 -0.45315254
-35.207565 -26.576473 -0.55780041
-32.07325 -26.40938 -0.56896746
-29.275993 -26.418575 -0.58759654
-28.06905 -26.625154 -0.56388843
-3.7343829 -26.646648 -0.57085222
-91.587837 -26.230255 -0.44818792
-89.714798 -26.106934 -0.4724327
-88.067924 -26.20163 -0.5687809
-84.56456 -26.137857 -0.36122072
-83.475151 -26.269392 -0.35346508
-82.806969 -26.339787 -0.51474386
-81.114014 -26.322878 -0.36880028
-80.830948 -26.241173 -0.4302758
-80.273491 -26.315639 -0.34217456
-78.755692 -26.391823 -0.36279416
-78.435402 -26.379044 -0.3715117
-78.190872 -26.158327 -0.31973064
-77.80162 -26.302914 -0.3506161
-77.508759 -26.276379 -0.34706771
-77.187683 -26.225399 -0.30944511
-76.717712 -26.222885 -0.38254976
-76.059128 -26.303743 -0.39136091
-75.66761 -26.127234 -0.42969751
-75.057137 -26.39904 -0.40556639
-74.92289 -26.341051 -0.50431484
-74.22683 -26.258942 -0.36815611
-72.360268 -26.118034 -0.43946448
-72.272156 -26.10952 -0.4571375
-70.586533 -26.145714 -0.38011876
-66.365311 -26.165236 -0.54547936
-66.159027 -26.353382 -0.53146893
-60.864521 -26.207254 -0.47700921
-43.5364 -26.360586 -0.51921612
-40.936188 -26.170139 -0.42128456
-40.053272 -26.13995 -0.42682445
-38.599499 -26.130281 -0.5751794
-37.627525 -26.233324 -0.55289352
-37.335789 -26.162367 -0.44475183
-36.238945 -26.296904 -0.43070605
-33.840252 -26.225 -0.58860683
-33.532024 -26.18409 -0.51441276
-30.962158 -26.241713 -0.49895245
-9.5026894 -26.319183 -0.57354933
9.4411316 -26.10533 -0.3861424
27.228441 -26.371803 -0.3905099
-92.147041 -25.91552 -0.51886344
-91.906471 -26.006355 -0.46732235
-84.946823 -26.059204 -0.41753972
-84.858543 -26.008734 -0.39885047
-81.982964 -25.905523 -0.39736331
-81.678261 -26.052996 -0.42586461
-81.364769 -26.009951 -0.31583056
-81.143188 -26.018612 -0.35550335
-79.624878 -26.036413 -0.47193387
-79.388275 -25.992931 -0.37721074
-78.10524 -26.074234 -0.39157036
-77.851311 -25.97324 -0.38881624
-77.503098 -25.997112 -0.41127449
-76.852249 -25.940754 -0.57225335
-76.648705 -25.89263 -0.41112658
-76.095085 -25.874382 -0.42670026
-74.867119 -25.808617 -0.41370422
-74.50634 -25.894167 -0.38434187
-74.284431 -25.972876 -0.40479708
-73.988541 -25.981562 -0.42261925
-73.225723 -25.87369 -0.3325772
-73.115936 -25.856106 -0.38028821
-72.832924 -26.090809 -0.48340935
-72.424644 -25.934179 -0.49973369
-71.836594 -25.893372 -0.51894921
-71.694511 -25.862089 -0.47516489
-70.963615 -25.989426 -0.43600398
-70.748337 -25.980595 -0.42683762
-68.744019 -25.828405 -0.52516121
-68.509659 -25.958931 -0.5658251
-63.937229 -26.036455 -0.52332073
-63.88665 -26.003368 -0.49876449
-63.234257 -25.814184 -0.48828292
-61.982258 -25.982782 -0.40203571
-38.414764 -25.897177 -0.50184476
-38.319107 -25.913664 -0.54205042
-36.979412 -25.976643 -0.56652057
-36.790607 -25.86813 -0.47553948
-28.970022 -25.912426 -0.58242863
-90.197647 -25.684393 -0.58950323
-85.634613 -25.757582 -0.32706258
-81.701782 -25.653744 -0.31914914
-81.500237 -25.599737 -0.36848029
-81.17231 -25.612 -0.3380734
-78.954193 -25.635937 -0.30710137
-78.110924 -25.568998 -0.43567252
-77.930534 -25.637932 -0.33450282
-77.469948 -25.608826 -0.43441287
-76.350952 -25.641258 -0.44758892
-76.076752 -25.669777 -0.51894891
-75.825401 -25.773777 -0.41271007
-74.723267 -25.759686 -0.49701187
-74.606812 -25.575592 -0.58485997
-74.019836 -25.61017 -0.42678952
-73.770683 -25.636389 -0.39573166
-72.186363 -25.722916 -0.52668619
-70.657639 -25.511116 -0.44712868
-69.284065 -25.711002 -0.51527339
-68.382187 -25.566483 -0.49492845
-66.685555 -25.730919 -0.48261255
-66.465614 -25.657141 -0.4590739
-64.70108 -25.765497 -0.58144456
-59.487934 -25.627365 -0.54103506
-58.738651 -25.633741 -0.49084848
-39.706917 -25.675299 -0.5366022
-38.140892 -25.712612 -0.42380267
-37.697716 -25.60804 -0.30352399
-37.37788 -25.620979 -0.42092943
-35.244034 -25.631624 -0.45012867
-33.243858 -25.700846 -0.48201135
-32.863155 -25.571548 -0.55605102
-30.262974 -25.528305 -0.53923988
-29.579048 -25.579208 -0.53887826
-28.824202 -25.764397 -0.47822216
-27.933588 -25.503265 -0.51207495
9.3738785 -25.525314 -0.37352526
27.340378 -25.649229 -0.51010531
-90.097092 -25.46084 -0.43243295
-89.798859 -25.340906 -0.59468222
-89.470459 -25.444992 -0.54860771
-79.346039 -25.294329 -0.37512571
-77.110695 -25.266361 -0.44248289
-76.337234 -25.41466 -0.41556573
-75.712349 -25.261719 -0.38639331
-75.373161 -25.472837 -0.46944085
-74.922676 -25.393904 -0.50770038
-74.439941 -25.203094 -0.33031613
-74.277763 -25.363749 -0.46314755
-74.045876 -25.289953 -0.48800826
-73.687454 -25.395832 -0.41324535
-73.280304 -25.324169 -0.47390181
-72.943161 -25.345942 -0.46616119
-71.893707 -25.278616 -0.5886476
-70.030464 -25.298256 -0.45544922
-67.527275 -25.32609 -0.54119259
-67.222343 -25.230694 -0.33986831
-67.061783 -25.49811 -0.34766367
-65.776993 -25.310795 -0.51968807
-64.5336 -25.43416 -0.46056271
-64.322693 -25.380882 -0.42538148
-62.271309 -25.305962 -0.45418587
-61.009853 -25.283573 -0.46460488
-56.026276 -25.385359 -0.58916003
-40.097366 -25.479811 -0.48856762
-39.176838 -25.32881 -0.49599466
-38.929901 -25.339302 -0.54251397
-37.260941 -25.38348 -0.48841211
-37.167889 -25.361032 -0.51735163
-36.454369 -25.352421 -0.55892116
-35.295067 -25.357094 -0.46214348
-34.056213 -25.209135 -0.5388965
-32.710079 -25.222923 -0.59436601
-31.247734 -25.479328 -0.5300476
-29.802694 -25.40177 -0.53941685
-82.475418 -24.937504 -0.34620786
-81.58651 -25.163465 -0.37166631
-80.69342 -25.106785 -0.42838755
-77.523743 -25.047604 -0.38848433
-76.690933 -25.065842 -0.44139874
-75.973679 -25.063038 -0.45711249
-75.427803 -24.967674 -0.46782205
-74.588448 -25.126068 -0.50495446
-74.209969 -25.124176 -0.38413587
-73.870255 -25.057205 -0.47799546
-73.369949 -25.011131 -0.50032377
-69.953896 -25.143005 -0.51583761
-69.673767 -25.108301 -0.46075726
-67.140831 -25.147671 -0.49706936
-62.810635 -25.08737 -0.59174955
-61.378399 -24.975483 -0.4195163
-60.906288 -24.904776 -0.53419358
-60.135391 -24.912811 -0.50341523
-59.823826 -24.987665 -0.55782193
-59.698475 -24.905027 -0.54778963
-58.652615 -25.131264 -0.59104741
-57.962856 -25.079006 -0.52294773
-57.487736 -24.953766 -0.51820308
-38.655552 -25.132097 -0.30010056
-38.337406 -24.991791 -0.47264758
-37.9813 -24.948193 -0.36090708
-36.804195 -25.097692 -0.59084672
-36.041142 -25.1882 -0.47611231
-35.68626 -25.115246 -0.46405444
-33.858166 -25.168539 -0.50703055
-32.770275 -25.099171 -0.44894749
-32.534393 -25.169327 -0.55688548
-31.280209 -24.940311 -0.53296083
-31.100672 -25.025906 -0.56763631
-30.819523 -24.945305 -0.5441165
-29.943707 -25.044361 -0.56333679
-28.681 -25.074205 -0.57626772
-28.268755 -24.949276 -0.4768573
-24.106234 -25.105574 -0.54490912
0.86428124 -24.913061 -0.53489482
9.3359289 -24.931206 -0.46969911
28.041109 -24.988375 -0.47560939
-77.335312 -24.745291 -0.37573025
-75.991058 -24.863232 -0.49680796
-75.062576 -24.876186 -0.44699442
-74.862617 -24.797157 -0.419083
-74.515961 -24.736565 -0.43588969
-73.602478 -24.831762 -0.51720721
-73.456635 -24.788624 -0.38746843
-72.924324 -24.735655 -0.53364694
-71.751671 -24.877882 -0.5821144
-71.121895 -24.7778 -0.50121486
-70.644775 -24.745821 -0.52478051
-70.440414 -24.770599 -0.47135389
-69.698524 -24.707233 -0.43393949
-68.765137 -24.836073 -0.51011258
-68.689987 -24.843466 -0.53497618
-67.232895 -24.610043 -0.58938229
-65.631104 -24.747227 -0.55159062
-65.306114 -24.701778 -0.51981384
-64.990089 -24.728374 -0.56677037
-63.403084 -24.839542 -0.52080339
-62.458717 -24.640778 -0.58691275
-62.20269 -24.667156 -0.55290455
-62.051548 -24.715086 -0.54440254
-60.759747 -24.603825 -0.4717589
-60.119637 -24.874847 -0.532507
-59.732487 -24.810343 -0.36015993
-58.887253 -24.609858 -0.49607444
-58.08371 -24.649502 -0.51275361
-36.739796 -24.785902 -0.54728144
-34.815491 -24.785208 -0.59396613
-33.623646 -24.702629 -0.55105495
-32.564579 -24.880522 -0.53571373
-30.832397 -24.639725 -0.57155156
-30.118334 -24.705475 -0.42028189
-29.869425 -24.752472 -0.58450413
-27.863247 -24.771343 -0.52933019
-26.918503 -24.829937 -0.5481897
-84.021942 -24.516861 -0.5458138
-77.593987 -24.337841 -0.31656224
-75.343475 -24.553591 -0.43834326
-70.909538 -24.393427 -0.47438711
-70.142517 -24.345556 -0.5297268
-68.705391 -24.410507 -0.44983831
-67.960091 -24.445887 -0.57676786
-62.219959 -24.581026 -0.55001289
-61.282154 -24.526773 -0.53604758
-60.790012 -24.465006 -0.55976373
-58.985153 -24.593998 -0.54447681
-58.517654 -24.451782 -0.45084545
-57.92947 -24.431721 -0.54755145
-57.831039 -24.49658 -0.53196859
-57.516846 -24.45039 -0.48859996
-57.240517 -24.425882 -0.57867885
-56.824383 -24.382423 -0.5674448
-56.593967 -24.30983 -0.53138447
-50.413998 -24.556047 -0.52997035
-37.650993 -24.386564 -0.41287783
-32.738777 -24.454681 -0.56767094
-30.631084 -24.42662 -0.57243156
-30.436653 -24.379217 -0.56574249
-28.69717 -24.307167 -0.53866816
-27.944838 -24.461708 -0.54852289
-26.751957 -24.494347 -0.59285009
7.7787533 -24.554323 -0.57596636
8.8288507 -24.33264 -0.49373043
9.0821123 -24.315065 -0.55659366
9.5616884 -24.465485 -0.5402903
9.658041 -24.512287 -0.52762967
21.777771 -24.466763 -0.42139533
-75.499023 -24.127478 -0.45056552
-73.905083 -24.032925 -0.49757153
-73.600739 -24.269075 -0.3909761
-73.488541 -24.049742 -0.46782684
-72.246613 -24.048269 -0.5922699
-71.226051 -24.040888 -0.58091253
-69.517166 -24.03709 -0.37850028
-68.810913 -24.136837 -0.48972282
-67.126274 -24.014788 -0.51997852
-66.087692 -24.090664 -0.59689844
-65.81617 -24.044292 -0.54082423
-64.382538 -24.255232 -0.57773429
-62.539818 -24.090672 -0.42342183
-61.693787 -24.112337 -0.54632485
-60.859516 -24.208853 -0.42235455
-59.603596 -24.00193 -0.51436156
-59.059731 -24.141678 -0.54649389
-58.627823 -24.209917 -0.57581246
-58.438293 -24.133909 -0.57407284
-57.312923 -24.060518 -0.59571898
-57.045509 -24.150045 -0.49850187
-56.748093 -24.114658 -0.5690428
-56.318981 -24.233337 -0.58612323
-55.583439 -24.061501 -0.54975206
-54.755886 -24.018269 -0.54678398
-53.976654 -24.050873 -0.58009511
-38.611546 -24.25663 -0.51821297
-30.760967 -24.240093 -0.54181802
-30.575577 -24.243347 -0.5687471
-28.714268 -24.19849 -0.44542438
-26.744085 -24.130421 -0.56617188
-26.259674 -24.130068 -0.57123387
-22.55558 -24.13789 -0.57189298
8.6652346 -24.285717 -0.58382845
8.8686428 -24.187077 -0.49610126
9.5271835 -24.040205 -0.43425614
9.913167 -24.099251 -0.5815419
27.522757 -24.138592 -0.5773598
-75.599403 -23.909214 -0.55069548
-72.065399 -23.852058 -0.45171639
-70.439003 -23.883615 -0.55318356
-66.533951 -23.813576 -0.54719037
-65.794769 -23.888729 -0.56619859
-65.561958 -23.847088 -0.50588036
-64.713356 -23.712776 -0.51937473
-64.262909 -23.811842 -0.5727973
-63.914818 -23.794359 -0.53636497
-62.47718 -23.954838 -0.5705905
-62.007851 -23.876148 -0.59966689
-61.06794 -23.821766 -0.56960106
-60.043949 -23.958151 -0.53528142
-58.946201 -23.751623 -0.42107356
-58.728363 -23.903982 -0.44315162
-57.80513 -23.917002 -0.51863933
-56.790524 -23.833891 -0.47118109
-55.956753 -23.825968 -0.54466587
-55.379303 -23.713474 -0.51748872
-54.778412 -23.884523 -0.50697112
-54.544186 -23.950069 -0.50754797
-54.264011 -23.770134 -0.45622543
-32.846848 -23.700537 -0.57064962
-32.262039 -23.703575 -0.535326
-31.648909 -23.75024 -0.57161224
-29.756718 -23.712082 -0.59138167
-29.166004 -23.758778 -0.52591085
-26.421307 -23.804602 -0.55061013
-26.207108 -23.81875 -0.53792089
9.284687 -23.770861 -0.35572892
9.4643583 -23.815903 -0.48918054
-75.315544 -23.442106 -0.46383291
-74.327515 -23.634497 -0.52622056
-73.280991 -23.463284 -0.58798754
-72.339272 -23.616762 -0.58845943
-70.607285 -23.461206 -0.50180829
-68.048485 -23.582355 -0.50920212
-67.69706 -23.574394 -0.55747557
-63.351795 -23.429703 -0.52377146
-63.293251 -23.406675 -0.55975151
-60.014179 -23.59622 -0.58400184
-59.913101 -23.585039 -0.58667082
-59.036049 -23.693325 -0.52857512
-57.957481 -23.675314 -0.52913165
-56.220577 -23.517986 -0.54397309
-55.103786 -23.522984 -0.56963331
-54.459034 -23.403755 -0.50515771
-52.509399 -23.598173 -0.58733827
-52.471252 -23.583427 -0.58614302
-51.913464 -23.516811 -0.59521806
-33.090721 -23.691683 -0.49152043
-30.062122 -23.441227 -0.55093169
-29.985006 -23.432673 -0.5458383
-29.138069 -23.449921 -0.47698542
-27.007736 -23.563559 -0.48562571
-26.878317 -23.560492 -0.54839575
-26.32373 -23.688129 -0.51468068
-24.735428 -23.564672 -0.55036157
7.895947 -23.637629 -0.52071798
8.3026075 -23.456709 -0.58792192
8.8553648 -23.520649 -0.44991645
9.0391407 -23.595589 -0.34652027
-79.248192 -23.323999 -0.50446779
-73.850578 -23.350803 -0.42018172
-72.505051 -23.365963 -0.59986866
-65.157333 -23.304514 -0.55553317
-64.75293 -23.2834 -0.58458662
-64.376678 -23.193645 -0.59068877
-55.81773 -23.396988 -0.59306788
-55.037094 -23.361856 -0.46522975
-52.731255 -23.130636 -0.57136929
-49.833786 -23.175934 -0.5990324
-49.790359 -23.138447 -0.55102915
-48.204136 -23.108728 -0.53325099
-31.569342 -23.107817 -0.47628292
-31.327019 -23.311897 -0.56532007
-30.411467 -23.290333 -0.37741989
-30.210018 -23.233063 -0.47497988
-29.874949 -23.283884 -0.58556587
-29.587004 -23.255806 -0.58011222
-28.932423 -23.240677 -0.42345041
-28.679293 -23.190258 -0.58987629
-27.583975 -23.24423 -0.59140104
-25.742016 -23.395903 -0.55820066
8.3177223 -23.32233 -0.37721801
9.1039419 -23.293024 -0.37909475
-86.784355 -22.882526 -0.57717723
-73.503632 -22.802961 -0.57254791
-68.904747 -22.994286 -0.52794856
-63.215214 -23.081953 -0.53455222
-56.494003 -23.001583 -0.5528807
-56.384636 -22.992134 -0.58716792
-55.197887 -23.007219 -0.49840268
-54.637661 -23.064491 -0.53123671
-54.542263 -23.056091 -0.50020164
-53.844868 -22.959446 -0.53470457
-52.849903 -22.890198 -0.54624689
-52.095901 -22.93461 -0.4874956
-50.104233 -23.006386 -0.49767807
-49.838776 -22.972769 -0.59807241
-49.78286 -22.944164 -0.40050238
-49.436699 -22.840412 -0.38204995
-49.148571 -22.808811 -0.46357381
-48.103291 -23.041643 -0.45761594
-32.538895 -22.991472 -0.47014266
-29.851196 -23.039598 -0.51014948
-28.925829 -22.94734 -0.54275322
-27.483582 -23.068539 -0.56011397
-27.192352 -22.927732 -0.58509409
-26.757046 -23.07453 -0.57746625
-25.866999 -22.894222 -0.52697355
-25.084375 -22.926619 -0.54632574
-24.809727 -22.916981 -0.59183937
8.5204926 -22.941299 -0.43356675
9.1432867 -22.883097 -0.39875561
20.631645 -23.065598 -0.34192672
21.41819 -23.033976 -0.33136281
-63.989014 -22.540304 -0.55837226
-62.431408 -22.640184 -0.47335196
-55.827465 -22.799818 -0.5330056
-54.060841 -22.635246 -0.57829279
-53.823635 -22.649748 -0.55431384
-52.331722 -22.569632 -0.39017865
-52.164875 -22.741482 -0.42369309
-51.335373 -22.744694 -0.53977996
-51.254696 -22.731617 -0.51436257
-50.221897 -22.784817 -0.50722486
-49.720459 -22.724186 -0.5981313
-49.368881 -22.597473 -0.49012101
