# .PCD v0.7 - Point Cloud Data file format
VERSION 0.7
FIELDS x y z
SIZE 4 4 4
TYPE F F F
COUNT 1 1 1
WIDTH 1506
HEIGHT 1
VIEWPOINT 0 0 0 1 0 0 0
POINTS 1506
DATA ascii
-44.519897 127.2364 -1.4002676
-42.998058 127.28282 -1.4621042
-42.707474 127.38329 -1.2497668
-40.214638 127.29224 -1.2103378
-36.850845 127.25916 -1.3322204
-33.855289 127.28602 -1.2155704
-32.459442 127.35544 -1.3275045
-31.588263 127.32726 -1.3192658
-31.385378 127.21805 -1.3908952
-27.360975 127.23734 -1.2657233
-26.145432 127.35746 -1.3813443
-25.747463 127.38258 -1.4948419
-24.950399 127.26701 -1.4330081
-24.891973 127.4392 -1.3931447
-24.092403 127.34051 -1.4264181
-22.018585 127.38409 -1.2701725
-21.779955 127.34112 -1.2264675
-19.291368 127.35484 -1.2049359
-18.474203 127.20612 -1.3288507
-15.76389 127.33828 -1.2990648
-15.581647 127.22655 -1.3592213
-15.209787 127.39014 -1.3706431
-13.656728 127.36092 -1.2043703
-11.297117 127.24445 -1.2490245
-10.223168 127.39342 -1.217402
-9.0984221 127.23184 -1.231071
-8.9560852 127.30609 -1.3300972
-6.1049819 127.46128 -1.3868303
-5.8324618 127.43003 -1.3082565
-5.2781596 127.32629 -1.3240317
-98.588791 127.69537 -1.2181044
-82.434418 127.6972 -1.4943581
-80.334785 127.7257 -1.4850743
-66.898712 127.56188 -1.2022674
-64.723991 127.65287 -1.3158966
-47.793896 127.75904 -1.2895516
-33.799965 127.6478 -1.3449301
-33.388351 127.59879 -1.2520444
-32.654087 127.65079 -1.4208944
-32.384922 127.61705 -1.2023815
-31.573687 127.76186 -1.3175039
-31.148218 127.78748 -1.4736836
-30.465595 127.71494 -1.3758944
-26.08754 127.50614 -1.4079002
-24.03681 127.78938 -1.3595765
-23.800016 127.54549 -1.4249789
-22.257334 127.67606 -1.2346723
-22.092937 127.61896 -1.2725358
-20.786238 127.62914 -1.383625
-20.694704 127.57487 -1.4057443
-19.358797 127.67907 -1.3149643
-18.686321 127.77301 -1.4686162
-18.000519 127.5698 -1.4605541
-17.23904 127.746 -1.4908214
-16.65382 127.66966 -1.3252273
-15.920261 127.57751 -1.3377873
-15.576998 127.62968 -1.3281019
-14.922635 127.72423 -1.2058263
-14.175174 127.58103 -1.2813543
-13.961733 127.66306 -1.2409611
-13.178007 127.74695 -1.2619958
-12.323452 127.69492 -1.4041514
-12.282049 127.64418 -1.4500116
-8.8087912 127.73138 -1.3574497
-8.1809635 127.71756 -1.3397988
-7.9402122 127.5853 -1.3587188
-7.5155683 127.69045 -1.3612059
-6.4637122 127.78546 -1.4579359
-6.17345 127.6432 -1.3374767
-5.8910589 127.68336 -1.2965972
-5.5866141 127.66412 -1.338467
-5.1309915 127.75497 -1.2321423
-5.0664926 127.75415 -1.4071441
-4.3793879 127.72479 -1.3960943
-4.174571 127.56595 -1.4639422
-68.382866 127.94418 -1.4295431
-66.85656 127.87536 -1.3232851
-66.285477 128.01059 -1.3956623
-65.750778 128.07207 -1.3646538
-62.746391 128.05959 -1.256525
-51.097343 127.93295 -1.4198472
-50.928741 127.9995 -1.3175659
-48.187122 128.05212 -1.4567711
-47.460777 127.81437 -1.4558194
-47.291306 128.01093 -1.4866135
-45.201717 128.06374 -1.3625209
-41.723816 127.89607 -1.2704124
-40.931023 127.86765 -1.4065638
-40.125618 127.9256 -1.3912537
-39.753769 127.89771 -1.4175822
-38.293945 127.93974 -1.2897909
-37.306786 127.84956 -1.3216649
-33.339634 127.94173 -1.2129289
-31.616789 127.89837 -1.3909009
-30.034819 128.01459 -1.3841496
-29.821949 127.94586 -1.4332547
-26.4715 127.80326 -1.3815856
-24.859026 127.83651 -1.459534
-22.287601 127.97115 -1.2331541
-18.726648 127.812 -1.4515654
-18.340046 128.03076 -1.2805426
-16.744247 127.88856 -1.2978475
-16.083261 127.95013 -1.2978935
-15.662627 127.98135 -1.4854267
-15.502942 127.82227 -1.3179982
-14.914534 127.99791 -1.2653929
-13.868037 128.04482 -1.3813137
-13.322166 127.85159 -1.2892604
-12.047273 128.00162 -1.4884306
-8.7387133 128.09142 -1.4298124
-7.8584843 127.95799 -1.3162332
-7.5445642 127.84475 -1.3079244
-7.2672586 128.0657 -1.4442725
-6.7579532 127.88328 -1.3062983
-5.5380378 127.98805 -1.3544167
-5.1442919 127.94981 -1.2866631
-3.351279 128.02228 -1.4867649
-83.771591 128.18515 -1.3039778
-65.360374 128.19998 -1.4564651
-64.505684 128.17598 -1.3880352
-64.494743 128.23593 -1.3290359
-63.188709 128.33206 -1.4667329
-61.134125 128.38654 -1.2421237
-60.580048 128.2254 -1.4679987
-50.494415 128.15463 -1.3691359
-50.296799 128.19974 -1.3343841
-48.190849 128.10593 -1.4749303
-47.72612 128.22699 -1.4713678
-47.62114 128.15791 -1.3611778
-44.666988 128.24576 -1.3719488
-41.772465 128.18369 -1.364454
-37.435177 128.14903 -1.4978274
-33.968876 128.27853 -1.450895
-32.111206 128.153 -1.3062916
-30.478704 128.22852 -1.3646356
-29.993612 128.13828 -1.3366495
-29.220592 128.11305 -1.4442637
-29.021013 128.12276 -1.4192363
-28.163727 128.32217 -1.444263
-26.517557 128.21191 -1.3509593
-23.060055 128.1776 -1.4190089
-22.42627 128.31499 -1.4352199
-21.34358 128.23763 -1.2527601
-16.954071 128.2229 -1.3563153
-16.098162 128.24657 -1.266983
-14.59681 128.39091 -1.2656455
-6.6430273 128.17149 -1.457448
-5.6994972 128.34 -1.2426438
-85.598846 128.59846 -1.3232441
-85.394096 128.55489 -1.2740923
-64.811394 128.6003 -1.4368718
-64.727516 128.55383 -1.264713
-64.279335 128.63454 -1.3811678
-61.115604 128.42392 -1.4085617
-60.624027 128.53622 -1.4553303
-49.485092 128.61995 -1.424647
-44.685184 128.56285 -1.3356874
-42.691044 128.56329 -1.4315519
-41.178062 128.647 -1.3398243
-40.301044 128.63065 -1.2138021
-35.042316 128.46211 -1.3805116
-33.429325 128.51186 -1.3199605
-31.692041 128.67969 -1.473827
-31.318535 128.53737 -1.4114827
-30.276182 128.55244 -1.3820736
-28.156881 128.45203 -1.4752668
-25.917646 128.5266 -1.2719502
-22.415117 128.47844 -1.3963538
-22.06098 128.4633 -1.2180064
-21.654282 128.58443 -1.4370511
-17.309732 128.44206 -1.2319413
-15.219987 128.51485 -1.3656533
-14.960991 128.43437 -1.3646415
-14.525011 128.67865 -1.3565806
-10.270587 128.42558 -1.2304915
-6.9008894 128.69604 -1.3282367
-6.3545489 128.54449 -1.2301415
-67.176514 128.70453 -1.205945
-65.504807 128.85997 -1.4487257
-64.927292 128.97659 -1.4669074
-64.542778 128.9138 -1.4660972
-64.475739 128.74527 -1.4882648
-63.789005 128.83336 -1.4517684
-62.361752 128.93028 -1.4755938
-49.525688 128.74149 -1.4527586
-49.486244 128.77609 -1.464498
-42.009354 128.93149 -1.4317905
-41.931175 128.88235 -1.3715559
-37.07798 128.91658 -1.4596864
-34.015472 128.79544 -1.4760668
-33.32489 128.93855 -1.4389881
-31.559303 128.74318 -1.441422
-31.372717 128.74611 -1.3970374
-30.55488 128.95056 -1.4334503
-24.434784 128.83974 -1.2912333
-24.274158 128.76715 -1.4253888
-22.212601 128.94283 -1.386096
-22.154694 128.97099 -1.3032929
-21.514851 128.91936 -1.4659405
-21.015984 128.76497 -1.2964336
-15.966422 128.84669 -1.3967568
-15.135299 128.78329 -1.277199
-14.623478 128.82832 -1.3731126
-13.737833 128.87213 -1.2639925
-12.654088 128.7756 -1.4373269
-11.409812 128.82693 -1.2214147
-10.344114 128.70724 -1.2243202
-9.3212767 128.98923 -1.2181699
-8.6055756 128.9337 -1.2593327
-6.9420385 128.77927 -1.3437598
-6.3819404 128.70872 -1.2698387
-81.083061 129.00024 -1.4174249
-67.682693 129.09549 -1.3323748
-64.86499 129.16495 -1.4358141
-64.321518 129.12399 -1.2330472
-64.172073 129.17639 -1.4366336
-57.618813 129.20178 -1.4825158
-45.609776 129.16013 -1.33287
-43.858479 129.17752 -1.4531288
-40.842667 129.12955 -1.2601628
-40.543381 129.24072 -1.4682156
-39.921642 129.24799 -1.2109866
-39.73959 129.15334 -1.4717604
-39.178452 129.17915 -1.4559778
-38.974846 129.08844 -1.3018459
-38.387669 129.25476 -1.375358
-37.344135 129.23866 -1.4793861
-37.119118 129.0099 -1.4875416
-35.287186 129.2944 -1.3030503
-34.929176 129.09999 -1.3065808
-33.930603 129.16292 -1.4515914
-33.082241 129.10753 -1.3065354
-32.878563 129.10291 -1.3941848
-31.903528 129.1405 -1.4805069
-31.108007 129.08826 -1.3874661
-30.478355 129.20309 -1.4231981
-30.030649 129.25955 -1.4968488
-27.900442 129.008 -1.4757366
-23.716927 129.05342 -1.2893426
-23.685263 129.00246 -1.2450066
-21.148067 129.22533 -1.3226473
-20.518217 129.17114 -1.4426218
-20.185379 129.23706 -1.4182796
-18.42494 129.12015 -1.2285306
-14.285327 129.28244 -1.3274819
-8.7820921 129.08226 -1.2979884
-8.6475754 129.01755 -1.2298611
-6.3037596 129.13586 -1.2678056
-81.093765 129.53387 -1.408655
-66.790184 129.50383 -1.274168
-64.272171 129.37137 -1.4406934
-64.040619 129.39687 -1.4330763
-63.776463 129.41959 -1.382059
-46.183475 129.44173 -1.4948734
-43.789135 129.30927 -1.4439727
-38.7449 129.55081 -1.3177967
-38.435505 129.35413 -1.3360275
-35.46999 129.50499 -1.2830275
-34.949337 129.4286 -1.3163757
-34.692795 129.34306 -1.3879417
-34.330471 129.51352 -1.2543566
-33.779179 129.53664 -1.4972253
-30.46447 129.37836 -1.4334745
-29.219299 129.54704 -1.499773
-25.464006 129.5546 -1.4048132
-23.866508 129.57953 -1.3154027
-20.503912 129.44124 -1.3948903
-19.866009 129.44183 -1.3414123
-18.957928 129.48112 -1.212978
-14.047934 129.53944 -1.2383097
-13.501854 129.46513 -1.2482672
-10.68555 129.33183 -1.4765873
-5.1330237 129.5549 -1.4000145
-5.0321631 129.38074 -1.2881422
-1.804517 129.41466 -1.2152287
-51.973499 129.8291 -1.2360379
-44.746628 129.71729 -1.4941658
-38.794441 129.71948 -1.4986893
-38.63847 129.63745 -1.4222653
-36.010174 129.67133 -1.4885184
-34.717506 129.71201 -1.3661009
-33.624901 129.76904 -1.4807643
-33.198044 129.83826 -1.4112935
-31.771967 129.71356 -1.3681705
-31.276297 129.87811 -1.4190524
-31.143984 129.81645 -1.3618475
-30.671608 129.86475 -1.3301209
-30.493479 129.74533 -1.3599284
-29.771332 129.81079 -1.3501035
-29.660015 129.65282 -1.3929417
-27.467052 129.72461 -1.4582816
-22.985535 129.68506 -1.4951252
-22.31625 129.82056 -1.3025005
-16.724548 129.79143 -1.3471117
-15.645884 129.69429 -1.269573
-8.6275826 129.6958 -1.3013206
-7.3392272 129.74857 -1.2693292
-5.6278586 129.70612 -1.2457635
-4.9581318 129.69736 -1.3414916
-4.5801034 129.68044 -1.4730902
-67.281845 130.10049 -1.450314
-66.519875 130.04163 -1.4458394
-63.050564 130.15546 -1.4523482
-50.754799 129.90993 -1.4946401
-39.437996 130.1714 -1.4900851
-38.856277 130.05807 -1.4607285
-36.124283 129.90251 -1.406667
-33.217651 130.03136 -1.4277329
-32.986095 130.17752 -1.3353329
-32.405426 129.92676 -1.4401211
-32.358555 130.00356 -1.4823627
-30.761677 130.03697 -1.368926
-30.469566 130.07037 -1.3947487
-29.454933 130.08372 -1.4894886
-29.173056 129.95961 -1.3245337
-29.044504 130.10553 -1.4279716
-26.71483 129.90205 -1.2591721
-22.934574 130.08826 -1.3506777
-22.421291 130.11688 -1.4348228
-19.973152 129.94566 -1.4142654
-18.444204 129.9187 -1.2997665
-17.770969 130.13115 -1.3626602
-15.406803 130.10277 -1.481257
-14.174676 130.1698 -1.3658423
-9.4308519 130.09357 -1.3731077
-9.0838623 129.99466 -1.3220582
-8.7087297 129.94662 -1.4964119
-6.7307892 130.08278 -1.2342482
-5.6564856 129.98427 -1.2144235
-5.2218037 129.93724 -1.4136106
-4.9227352 129.90605 -1.2083147
-97.753426 130.42029 -1.4397278
-71.275719 130.21852 -1.4278774
-52.50985 130.4227 -1.4341823
-52.470642 130.34943 -1.4495473
-51.725498 130.39442 -1.3926251
-45.853359 130.3165 -1.4581593
-42.925014 130.25266 -1.4120202
-41.992413 130.4603 -1.3956871
-40.41972 130.48613 -1.3089466
-39.395954 130.29164 -1.4734267
-38.905396 130.22408 -1.4575804
-38.023594 130.43768 -1.3620887
-37.174526 130.39665 -1.4744018
-32.526638 130.34723 -1.4211531
-32.229008 130.33432 -1.4565009
-31.946527 130.35095 -1.4317536
-30.841324 130.21153 -1.4340674
-30.412207 130.23663 -1.4598166
-29.691679 130.20851 -1.2277874
-29.275501 130.22696 -1.4608476
-28.975685 130.25755 -1.3940318
-27.258226 130.39359 -1.3053122
-26.280405 130.39706 -1.4104606
-22.067839 130.37343 -1.3954554
-21.614706 130.26642 -1.3451406
-21.523319 130.35431 -1.3217795
-21.142851 130.40584 -1.4143274
-19.442944 130.4192 -1.4572511
-18.979345 130.43587 -1.3210789
-16.064131 130.36829 -1.210068
-14.173518 130.26062 -1.40591
-12.841657 130.32791 -1.4138389
-8.6989784 130.25862 -1.2420864
-7.885993 130.47928 -1.3011461
-5.4589758 130.48032 -1.3134396
-86.570885 130.6299 -1.4640713
-67.666832 130.51225 -1.2380937
-67.182335 130.68155 -1.2992474
-55.200939 130.53429 -1.2907522
-54.850513 130.61339 -1.4618543
-52.924931 130.57033 -1.4875255
-43.675438 130.65277 -1.466225
-42.866615 130.60304 -1.4533943
-34.314079 130.79965 -1.4022363
-33.599087 130.51451 -1.281355
-31.413975 130.57602 -1.4531291
-29.759115 130.51883 -1.4608663
-26.404045 130.52621 -1.2724299
-24.64924 130.62602 -1.4688215
-24.446049 130.77495 -1.2952504
-22.977161 130.5322 -1.3690532
-22.718283 130.69531 -1.4209405
-21.787846 130.57172 -1.29054
-21.398436 130.68835 -1.2714045
-21.070807 130.56223 -1.4532857
-19.748411 130.56851 -1.3175694
-19.098505 130.63074 -1.4677975
-18.892262 130.62192 -1.2601094
-18.254898 130.72716 -1.202284
-14.643863 130.78537 -1.3016675
-14.146128 130.60837 -1.3315427
-13.505516 130.59065 -1.3056529
-12.431248 130.73523 -1.4879978
-11.336451 130.55368 -1.2457709
-8.8441277 130.69318 -1.3782945
-7.9193382 130.64499 -1.3192276
-6.6489692 130.77312 -1.2671016
-95.291267 131.05516 -1.4945383
-71.112617 130.98668 -1.4929177
-62.998692 130.82439 -1.2954074
-54.06741 130.87582 -1.4442793
-52.654938 130.83435 -1.2394993
-49.382793 130.83562 -1.2502254
-47.966686 131.05557 -1.4497579
-46.324379 130.89851 -1.4214129
-44.507706 130.88757 -1.4917768
-41.671082 131.06551 -1.3099753
-38.28215 131.08966 -1.4358457
-36.76368 131.07291 -1.4086188
-35.93565 130.99791 -1.244409
-35.064621 130.97617 -1.2872089
-34.391079 130.9352 -1.3893887
-33.468754 130.91484 -1.3992113
-24.083128 131.04994 -1.4239061
-23.832016 131.09157 -1.4761825
-22.312195 130.97263 -1.4038413
-21.380142 130.91362 -1.2671019
-20.911171 130.96072 -1.4515058
-19.790892 130.82146 -1.3689651
-19.262203 130.89963 -1.2749997
-19.02895 130.82649 -1.368912
-18.568876 130.87621 -1.420705
-16.640282 130.89066 -1.2899169
-15.208014 130.99007 -1.3923926
-13.536042 130.93379 -1.4785842
-12.436053 130.93521 -1.4043198
-7.0385838 130.82465 -1.4099822
-5.1790028 130.89215 -1.2651353
-52.972446 131.37903 -1.4268798
-52.239021 131.3631 -1.4021902
-52.199406 131.36755 -1.2509875
-47.058567 131.24397 -1.401769
-44.590588 131.24107 -1.4806266
-43.734665 131.13055 -1.3797538
-41.689507 131.1107 -1.2361238
-41.306038 131.21616 -1.3260884
-40.461975 131.13528 -1.3864769
-38.156857 131.28787 -1.2411822
-35.407211 131.20514 -1.2328528
-35.025055 131.11583 -1.2747413
-34.615086 131.24197 -1.4302351
-34.340801 131.11946 -1.2139822
-31.910402 131.27748 -1.3588769
-29.973713 131.28165 -1.414556
-26.328163 131.10564 -1.425095
-24.115459 131.22108 -1.4891838
-23.714382 131.23093 -1.4061047
-23.667395 131.35251 -1.2913548
-23.285913 131.31903 -1.3963919
-19.687534 131.34903 -1.2550259
-19.207983 131.1729 -1.3222907
-17.896936 131.29012 -1.3643203
-16.712652 131.1797 -1.2902119
-16.412533 131.14175 -1.2979233
-15.332953 131.18874 -1.242457
-15.095288 131.22556 -1.3887628
-14.259828 131.28931 -1.3227644
-10.731839 131.39363 -1.4455222
-4.626616 131.2881 -1.281316
-3.8253675 131.37733 -1.2067568
-54.799351 131.59 -1.2918576
-52.263474 131.47995 -1.4340864
-52.172192 131.48276 -1.2122906
-50.422657 131.42068 -1.2598677
-50.148029 131.67097 -1.3226669
-50.080299 131.57117 -1.2490957
-49.761131 131.61555 -1.3069484
-45.917995 131.49455 -1.4566591
-43.087456 131.6291 -1.4201216
-41.243839 131.4534 -1.2993441
-38.742722 131.68037 -1.3441993
-38.437508 131.69476 -1.4077034
-33.084892 131.60995 -1.3419814
-32.791363 131.48825 -1.372715
-32.150738 131.43275 -1.320147
-29.178391 131.59422 -1.412619
-29.059546 131.55432 -1.2858821
-19.796192 131.45409 -1.3489339
-19.203562 131.53166 -1.4143829
-19.190018 131.59698 -1.2799039
-18.44277 131.61409 -1.4239931
-18.234638 131.4157 -1.3892879
-16.646999 131.40085 -1.2620901
-15.239852 131.43048 -1.3254244
-14.584565 131.49313 -1.4532107
-14.180511 131.56325 -1.4274557
-13.313646 131.45605 -1.3771554
-13.078596 131.45525 -1.4937353
-12.264828 131.58891 -1.4701115
-10.739536 131.50264 -1.376508
-4.2015734 131.54317 -1.2806237
-3.9581599 131.42674 -1.2812668
-3.0944448 131.58405 -1.3921137
-65.248337 131.77927 -1.3523059
-43.154446 131.75322 -1.469023
-40.672268 131.99532 -1.385919
-39.490593 131.96591 -1.3026428
-39.218399 131.99608 -1.346279
-38.516014 131.76897 -1.3734978
-36.182747 131.98071 -1.4550811
-35.904202 131.92453 -1.3708248
-33.93763 131.737 -1.3498678
-33.055588 131.85548 -1.3014371
-32.975731 131.87282 -1.3459679
-32.672676 131.82541 -1.3991771
-31.972315 131.75728 -1.3440852
-30.263605 131.82378 -1.4712538
-29.989292 131.93579 -1.4626782
-29.158564 131.92613 -1.4713359
-22.298904 131.74881 -1.4303733
-19.378105 131.85855 -1.379775
-12.689222 131.86357 -1.4330528
-6.7309532 131.87614 -1.3526323
-6.1232228 131.91531 -1.4300438
-4.3015518 131.73366 -1.2073531
-3.9676545 131.85498 -1.3243216
-66.960938 132.29831 -1.4532617
-51.302525 132.22748 -1.311528
-50.745274 132.13625 -1.2258577
-49.315273 132.14333 -1.459673
-42.392914 132.18633 -1.4031327
-42.004749 132.25159 -1.4908965
-41.967979 132.05931 -1.4385352
-35.275352 132.23242 -1.3427243
-33.940594 132.2189 -1.3435559
-33.700157 132.01959 -1.3079473
-32.731705 132.00629 -1.4999228
-32.641449 132.03786 -1.4949985
-31.614223 132.22559 -1.3628732
-29.494452 132.10396 -1.485697
-29.175257 132.04399 -1.3986893
-20.712635 132.10925 -1.3657138
-8.7423687 132.25784 -1.2507048
-8.1008244 132.00484 -1.4241296
-8.0823221 132.04485 -1.4602011
-7.3338523 132.15469 -1.2623891
-6.7124438 132.12323 -1.3569117
-71.508827 132.58109 -1.4023343
-68.116806 132.3985 -1.447423
-67.279617 132.42651 -1.3794527
-66.988388 132.55775 -1.4348139
-66.871536 132.51649 -1.3882818
-51.666206 132.35178 -1.3844296
-50.507843 132.53525 -1.4533166
-35.47699 132.41931 -1.4726888
-35.285965 132.44427 -1.4291657
-33.251682 132.35738 -1.3803716
-32.754414 132.58531 -1.4420708
-31.071207 132.53334 -1.4431779
-24.005386 132.54056 -1.4588255
-23.400658 132.56238 -1.3300834
-19.275135 132.59982 -1.4990872
-16.995995 132.57111 -1.3467562
-13.595903 132.54263 -1.3622754
-7.3335972 132.46635 -1.4979471
-66.311745 132.70592 -1.2055774
-66.298668 132.64977 -1.2925378
-65.83445 132.72411 -1.275658
-53.336372 132.72357 -1.4530663
-51.223442 132.83176 -1.2005757
-50.215714 132.75058 -1.4635313
-48.569824 132.83067 -1.4526511
-47.281067 132.89629 -1.4544729
-41.403069 132.60191 -1.2094507
-41.132401 132.80563 -1.2968159
-38.404171 132.74129 -1.4106002
-35.971375 132.845 -1.4557741
-35.240063 132.78973 -1.4120836
-34.740322 132.7455 -1.4954228
-34.302567 132.89841 -1.4328682
-34.183655 132.72136 -1.2639252
-33.71249 132.70514 -1.3738817
-33.144264 132.77135 -1.423907
-32.802197 132.68518 -1.4217157
-32.55619 132.77051 -1.4920731
-24.607059 132.88142 -1.2928977
-19.987391 132.73233 -1.417168
-18.65181 132.7596 -1.3712715
-18.446255 132.77025 -1.3189555
-18.14312 132.88019 -1.4500846
-17.229355 132.76892 -1.2644985
-7.3210845 132.86989 -1.3501389
-6.9066787 132.68039 -1.4806666
-55.137016 133.18773 -1.2443357
-53.683384 133.09845 -1.2981366
-48.369499 132.94815 -1.4793938
-47.256134 132.91615 -1.4313999
-38.546345 133.00253 -1.3427534
-38.346191 133.11403 -1.2542489
-34.466476 133.04385 -1.2931169
-34.16032 132.96634 -1.4673682
-32.163628 133.17719 -1.4416208
-21.296751 132.95464 -1.4812568
-20.530107 132.97733 -1.3503423
-17.87023 132.95705 -1.2195982
-16.496372 133.17433 -1.399426
-14.288388 133.10596 -1.4182684
-12.301998 133.11942 -1.396681
-11.919738 133.11943 -1.4395533
-7.8273125 133.10117 -1.3891025
-7.339818 132.95097 -1.3250754
-51.330921 133.28856 -1.3305572
-51.236912 133.31909 -1.3863456
-50.152298 133.32153 -1.3904667
-49.395893 133.44078 -1.4678645
-38.284157 133.26547 -1.3507022
-33.103424 133.22061 -1.3445996
-32.90337 133.49976 -1.4706773
-20.514927 133.48944 -1.4784591
-20.239464 133.42859 -1.3981085
-18.188499 133.2485 -1.4692886
-16.466694 133.2166 -1.3691093
-15.61013 133.38071 -1.318524
-15.200211 133.46399 -1.3341486
-14.898796 133.4772 -1.4740405
-14.681353 133.23633 -1.2295638
-11.018122 133.3157 -1.2377613
-9.1348076 133.31834 -1.4160848
-7.8141236 133.2171 -1.287271
-7.1725554 133.49561 -1.2508667
-6.15766 133.36438 -1.422251
-4.5354686 133.47969 -1.3489515
-47.286537 133.66341 -1.4885128
-44.043621 133.72743 -1.3430978
-43.382832 133.76413 -1.3875459
-36.257717 133.60461 -1.4153392
-33.47467 133.63383 -1.4430033
-32.429726 133.54939 -1.474797
-32.229527 133.50223 -1.3994881
-32.094063 133.57791 -1.4999995
-23.106627 133.57065 -1.3178871
-23.005308 133.66745 -1.3381344
-22.057798 133.78523 -1.4935727
-20.546743 133.58707 -1.4549304
-20.272232 133.52223 -1.3605981
-19.601095 133.5974 -1.4692383
-17.974567 133.69028 -1.449261
-17.699446 133.59105 -1.2153072
-17.257812 133.60507 -1.3023765
-16.613277 133.67754 -1.40826
-15.344238 133.52673 -1.3860737
-15.038133 133.52174 -1.3824776
-14.773797 133.70605 -1.4354452
-11.027637 133.72481 -1.2303573
-9.8374767 133.66634 -1.4565737
-9.1962776 133.65675 -1.4550718
-8.894043 133.54886 -1.3543003
-7.1612167 133.5528 -1.2103333
-4.8527565 133.71072 -1.4484404
-52.914833 133.84729 -1.2841346
-52.44109 133.94484 -1.3209344
-51.869904 134.01932 -1.3910025
-47.787029 133.90533 -1.3742299
-43.505974 133.81902 -1.323308
-41.196922 133.9193 -1.3615119
-38.828915 133.97034 -1.2584811
-24.142797 133.90515 -1.4416816
-22.69763 133.85092 -1.3535062
-21.320166 133.90614 -1.3009619
-18.730698 133.88327 -1.4847276
-17.796717 134.01549 -1.3624058
-17.334122 134.0072 -1.4692233
-15.930573 133.90645 -1.3407358
-15.877706 133.94853 -1.3425243
-14.751394 133.96265 -1.3640996
-14.617422 133.89711 -1.3968478
-14.386668 133.9232 -1.4816575
-9.6713743 134.0051 -1.4410772
-4.930006 133.8671 -1.2291311
-53.286522 134.35129 -1.4780537
-52.30307 134.35132 -1.3867594
-51.345684 134.24796 -1.4621561
-40.534824 134.29216 -1.2335628
-38.415714 134.36107 -1.3269306
-24.947657 134.27467 -1.3420209
-20.581438 134.3726 -1.413602
-19.855696 134.19759 -1.4105439
-19.358803 134.10158 -1.3511534
-17.255894 134.20969 -1.4418831
-14.982077 134.36339 -1.4129997
-4.6072941 134.16519 -1.3908354
0.47325629 134.33968 -1.3069004
-54.819431 134.46524 -1.2279831
-53.560516 134.55859 -1.4261959
-50.128349 134.69925 -1.4106286
-35.009453 134.65932 -1.3439718
-23.265699 134.49603 -1.3607565
-18.764591 134.65128 -1.3786364
-17.557154 134.65143 -1.4698377
-17.259262 134.68947 -1.3787172
-14.308478 134.5853 -1.4135036
0.46560052 134.50275 -1.2845654
-51.857307 134.86511 -1.4558091
-45.236141 134.85074 -1.3020159
-43.327797 134.87753 -1.4652817
-42.001717 134.88864 -1.390949
-41.048794 134.84691 -1.2214456
-38.619877 134.98596 -1.3451567
-34.759697 134.92139 -1.373486
-34.309277 134.95476 -1.4527228
-17.790508 134.83139 -1.3653717
-17.593174 134.93916 -1.2981169
-8.5250797 134.83498 -1.3057719
-4.9396596 134.88881 -1.4020978
-4.628231 134.93732 -1.394855
-4.4682703 134.98103 -1.2506405
-51.657944 135.18517 -1.4239888
-51.46236 135.09827 -1.4452919
-50.374969 135.17268 -1.4203515
-49.672142 135.136 -1.399755
-41.095837 135.27942 -1.3507996
-22.221052 135.13945 -1.364616
-20.028263 135.25626 -1.3523371
-19.098583 135.2493 -1.4135453
-18.022753 135.02277 -1.4997021
-17.921286 135.13417 -1.2356441
-17.573103 135.06801 -1.2388128
-17.027035 135.06216 -1.4168901
-12.843339 135.28236 -1.3470891
-9.0744801 135.09799 -1.3987665
-6.7729921 135.09798 -1.2099935
-6.4164662 135.23264 -1.4280189
-5.309011 135.0444 -1.2115177
-4.6367321 135.01643 -1.403141
-50.256973 135.41034 -1.4837043
-49.560322 135.35001 -1.4818444
-41.100082 135.34633 -1.2792294
-38.208035 135.40529 -1.3111572
-25.644361 135.35104 -1.3081187
-22.229221 135.30885 -1.435021
-20.091354 135.32597 -1.3153726
-19.080393 135.39754 -1.3909777
-17.734406 135.38387 -1.4962465
-48.649963 135.64938 -1.3225452
-48.128708 135.68509 -1.3616664
-45.465214 135.70299 -1.4279721
-38.451084 135.88181 -1.3284664
-38.397724 135.80574 -1.3030366
-35.962372 135.85594 -1.4790213
-34.360336 135.81519 -1.4488536
-34.193436 135.71297 -1.3564106
-19.103695 135.69875 -1.3544078
-16.845675 135.7798 -1.4592978
-14.45934 135.71461 -1.3768368
-13.955103 135.60768 -1.4480859
-12.807278 135.74251 -1.4742657
-5.9367638 135.7558 -1.2727591
-38.489162 135.9969 -1.4227461
-38.041695 136.0865 -1.373906
-36.771271 135.96921 -1.2388966
-35.945553 136.06508 -1.2935712
-24.241398 136.13274 -1.2223508
-19.978655 136.16077 -1.448701
-19.565165 136.16113 -1.4209967
-18.663172 136.10269 -1.4853647
-17.96781 136.16762 -1.3924133
-14.820236 136.0085 -1.3184741
-14.37701 136.16928 -1.2808753
-10.197713 136.1413 -1.4581114
-8.6711559 136.10262 -1.4108083
-8.2442369 136.1299 -1.493204
-3.5913305 135.90244 -1.4994457
-65.953888 136.30458 -1.4513556
-43.132935 136.35988 -1.3850911
-36.087273 136.20461 -1.3360715
-35.767811 136.3862 -1.3131582
-33.673306 136.22028 -1.458514
-19.950409 136.23892 -1.4077512
-18.862171 136.29628 -1.3480122
-18.15827 136.45206 -1.2382107
-10.604023 136.35832 -1.3560948
-9.0416594 136.48569 -1.4406363
-53.406097 136.67328 -1.2055432
-32.374249 136.64325 -1.4321074
-22.260439 136.76152 -1.4093946
-18.115009 136.57974 -1.4554219
-17.085621 136.71439 -1.4975755
-10.942585 136.56235 -1.3626418
-8.4010534 136.6378 -1.420105
-8.3522768 136.60136 -1.4667864
-6.76019 136.56654 -1.3857497
-4.9001021 136.51282 -1.3559513
-55.438198 137.08861 -1.421658
-34.516903 137.09673 -1.3535422
-31.247395 136.99414 -1.4852494
-22.666788 136.90108 -1.3152031
-20.754017 136.88741 -1.3527445
-16.269693 136.81212 -1.4691722
-9.2103138 137.00131 -1.4877944
-8.7027006 137.05293 -1.3781532
-8.6913118 136.99954 -1.4222515
-7.7394619 136.95235 -1.3604544
-7.0783114 136.95959 -1.4003766
-39.08342 137.18692 -1.4273016
-38.839176 137.11925 -1.4795014
-38.58606 137.24323 -1.4415193
-37.80545 137.37367 -1.3041798
-37.761826 137.37367 -1.33469
-37.188572 137.28995 -1.3067796
-21.441952 137.29346 -1.3795087
-20.915123 137.3185 -1.4129127
-20.481415 137.14676 -1.3655872
-18.376347 137.33273 -1.2897344
-17.290949 137.39944 -1.4966105
-7.6710844 137.22314 -1.4363949
-40.8232 137.46825 -1.3581659
-39.431652 137.65585 -1.4630991
-35.604107 137.60812 -1.4553914
-34.864857 137.59982 -1.376947
-34.628246 137.68747 -1.4462541
-19.047943 137.50839 -1.4371736
-18.415667 137.42477 -1.4096632
-18.037476 137.66138 -1.4773099
-8.4014874 137.50548 -1.2663926
-6.8323784 137.64378 -1.4701854
-52.413582 137.83331 -1.4491296
-34.688057 137.77283 -1.3780022
-33.849129 137.97307 -1.4947064
-8.1437435 137.75229 -1.3268232
-6.0775008 137.90472 -1.4071641
-38.183788 138.23582 -1.4505966
-21.39053 138.07449 -1.3748974
-21.11445 138.25232 -1.2464087
-17.288414 138.10594 -1.407297
-14.546484 138.2919 -1.4517008
-5.1560364 138.2999 -1.4164405
-21.128384 138.54327 -1.4482223
-7.818047 138.53932 -1.4546442
-6.3303771 138.37152 -1.3567896
-5.202888 138.32898 -1.4796942
-4.9623356 138.35973 -1.2203841
-17.78334 138.67226 -1.2971071
-35.462109 139.13472 -1.4646975
-18.873114 139.11418 -1.3818254
-25.62825 139.36729 -1.439483
-7.4421906 139.24142 -1.4459327
-22.057802 139.72888 -1.3856951
-37.52853 140.07698 -1.484135
-18.145958 140.01213 -1.4718995
-7.0691285 139.98378 -1.3313963
-6.3709836 139.91702 -1.4014186
-6.2313914 139.99443 -1.4309549
-22.247211 140.16338 -1.3430154
-20.08251 140.2675 -1.4608492
-6.7195168 140.21848 -1.2805604
-6.4483843 140.29312 -1.2634376
-36.325874 140.57245 -1.4690218
-36.28989 140.47484 -1.4468424
-9.4265175 140.43111 -1.2595127
-19.267544 140.74712 -1.3572514
-18.374596 140.72548 -1.4242315
-7.7121615 141.94614 -1.3326483
-2.982923 144.01927 -1.2395078
-1.0382526 3.228158 -1.0063517
-0.72579193 3.2538905 -1.0163974
-1.0748394 4.9857264 -0.97882521
-0.49476179 4.9441872 -1.0179123
0.72021514 5.0898619 -1.1605562
-1.3506223 5.3814301 -0.91938543
0.84244317 5.1114674 -1.1762751
-0.8752892 5.4823899 -0.97908461
1.6410809 5.4899278 -1.1954601
-1.8803387 7.2961111 -0.91144574
-1.2643844 7.3017764 -0.95730686
1.887702 7.348505 -1.0690367
-1.9901124 7.5041943 -0.95258141
-1.6174271 7.569315 -0.934659
-1.2080586 7.5120811 -0.92906213
-0.93931609 7.639473 -0.9260509
0.46504736 7.5426335 -0.97684723
-0.66728359 8.2585201 -0.95723659
0.017355641 8.3725281 -1.0318713
0.40879887 8.3949461 -0.94431055
1.5166471 8.1636372 -1.1716082
2.2334027 8.3684311 -1.1648077
-0.70240301 8.9934158 -0.9966054
-0.18393031 8.866271 -0.97511292
0.6693697 8.7519569 -1.1870865
1.4910583 8.7732944 -0.93360841
-2.3691974 9.2203226 -0.92659104
-0.71385503 9.2066479 -0.99641937
-0.2074566 9.0428867 -0.94694835
0.61843061 9.0388823 -0.91036868
1.3531548 9.1077137 -1.1300181
-1.7785416 9.3677816 -0.96343112
-1.1445315 9.5433607 -1.0041832
1.0656662 9.3622036 -1.0086817
1.4811764 9.5278835 -0.92171454
-1.5310071 9.8242054 -0.95643961
-1.1342572 9.6100674 -1.059113
-0.40848821 9.6983929 -1.0419352
1.7336495 9.7173233 -0.91698879
-1.2191529 10.19822 -0.93023431
-1.3742988 10.410189 -0.93380928
-0.60788941 10.339674 -0.93121386
0.45914894 10.489174 -0.92767537
1.2055039 10.24682 -0.97655469
3.2159703 10.420338 -1.0661092
-1.2110041 10.606262 -0.91545659
-1.0215003 10.748308 -0.92827922
0.33972111 10.690746 -0.95389825
1.1153302 10.753399 -0.99752104
2.3856397 10.647236 -0.92588317
2.4314682 10.701645 -0.95557731
-0.67694366 10.828508 -0.94060099
0.028027721 10.843067 -0.92753792
2.2452867 10.819135 -0.96837807
-0.55881989 11.384064 -0.90566379
0.086957887 11.154003 -0.9825567
-2.0263023 11.646671 -0.90445918
-0.7260496 11.577762 -0.94478053
-0.56022745 11.436346 -0.93861496
1.5989449 11.667998 -0.94150043
3.6669276 11.646699 -0.97127616
-1.6378009 11.81344 -0.92812026
1.3646524 11.783964 -0.92085201
1.7616848 11.846127 -1.0588094
-2.3246655 12.287098 -0.9059906
-1.1533289 12.059311 -0.90605861
1.6121505 12.158788 -1.0304005
-1.634564 12.518864 -0.93348914
2.5152347 12.499809 -0.97278768
2.9421196 12.449492 -0.98839003
3.3080647 12.364785 -0.98010862
-3.244 12.754425 -1.0288335
-1.4420251 12.61388 -0.95949519
-0.94831735 12.792729 -0.90193319
2.661067 12.641335 -0.9455716
-2.8957326 13.156455 -0.95430684
-1.823948 13.14945 -0.90340233
-1.7030619 12.966342 -0.91248894
3.2751579 13.022667 -0.94775981
-3.7234449 13.45979 -0.93966448
-1.7789274 13.474269 -0.91128522
-1.4200664 13.361195 -1.0664164
-3.7490442 13.577303 -0.91753817
-1.7427894 13.557928 -0.91670561
-0.56156886 13.744355 -0.90774781
3.6388302 13.598773 -0.90096664
-0.55673474 14.004306 -0.99004704
2.9644871 13.9252 -0.91798049
-0.95529294 14.208962 -0.97074091
-0.51779395 14.253673 -0.96741092
0.28771648 14.369887 -0.97334278
-2.1806524 14.593768 -0.91987354
-0.56589955 14.437947 -0.93045038
2.1010985 14.401968 -0.93092287
-3.2503383 14.880303 -1.0752709
-0.17298518 14.87439 -0.91595161
-4.0691719 15.284036 -0.93408853
-2.8699653 15.173649 -0.97707081
-1.2618042 15.17133 -0.93734038
-0.5153057 15.046455 -0.94797337
-2.9322166 15.445427 -1.0224584
-2.0805576 15.540544 -0.95624238
-1.2877412 15.377209 -0.95680869
5.3658657 15.440694 -0.97214073
-2.0422063 15.804143 -1.0028675
-1.3299968 15.7895 -0.95324188
3.1581619 15.883597 -0.98721939
4.8345385 15.848065 -0.96486557
-2.7247951 16.194323 -0.98000067
-2.6518857 16.115244 -0.96830159
-1.9425381 16.096741 -1.0085169
-0.9888159 16.165333 -0.9355309
3.7325184 16.00699 -0.92469269
4.054544 16.033453 -0.98718137
4.2223501 16.111275 -0.92931569
5.6576838 16.140059 -0.94972944
-4.1687984 16.422953 -0.93870348
-3.6221666 16.342117 -1.0091541
-3.5904255 16.31184 -0.92926657
-3.0077174 16.251131 -0.91053009
-2.4549518 16.473354 -0.93331075
-1.8863674 16.262812 -0.90802652
-1.4732088 16.327652 -1.0023046
-0.99232447 16.244905 -0.97585958
-4.2086558 16.505037 -1.0004804
-3.4563706 16.783478 -0.90141851
-2.8994381 16.708286 -1.0214618
-1.8528867 16.663467 -0.93553752
4.0259452 16.547297 -0.940943
-3.1708691 16.883371 -0.91909218
-2.3361878 16.924807 -0.92817652
4.2912145 16.919971 -0.9914282
3.2680023 17.135643 -0.91304219
4.7034249 17.273188 -0.99400073
-3.1717658 17.509003 -0.99323368
-1.5083333 17.445196 -1.0568333
2.8256695 17.682041 -0.92480987
-2.5845704 18.150833 -0.9234544
3.4843419 18.100128 -0.92891783
4.6179252 18.115036 -0.95093906
-3.2464261 18.592531 -0.96833068
-1.5565408 18.539467 -0.97095412
-4.1393075 18.774723 -1.1319981
-3.2666235 18.697594 -0.94557929
-0.27922606 18.708628 -0.95603049
0.79262722 18.861557 -1.0192077
4.0438404 18.707661 -0.92112517
4.8218513 18.89222 -0.91940159
-2.3267233 18.949066 -0.90410703
0.36586845 18.963896 -0.99952513
3.9697661 19.050863 -0.91054511
2.2638397 19.44166 -0.90576404
2.9874232 19.329475 -0.98828304
3.4961007 19.207838 -0.91967767
4.2189307 19.364052 -0.90955561
2.2543309 19.508196 -0.93657154
3.5705895 19.547544 -0.92193514
5.4287238 19.680674 -0.97114581
-1.6305157 19.922127 -0.96033919
4.4667025 19.830612 -0.91136301
-1.765972 20.31074 -0.90611488
3.9965115 20.193583 -0.91285276
5.5998425 20.224802 -1.0292789
0.4360792 20.695618 -0.9787038
-2.7847939 20.732689 -0.94186646
3.4777083 20.805206 -0.92649007
6.1298037 21.200876 -0.90552217
5.1253581 21.87554 -0.94966632
-3.8881154 22.102747 -0.95171368
-1.7513645 22.041128 -0.90988564
3.9901581 22.17676 -0.91555727
5.8594537 21.979294 -0.9051587
6.0165901 22.041698 -0.90091109
-3.0506577 22.910576 -0.91365057
4.1579075 23.06286 -0.9781478
4.9536848 23.006155 -0.95230353
5.9182076 23.040112 -0.92516893
3.2968779 23.344387 -0.95012933
4.675323 23.345352 -0.96532637
3.2231224 23.617912 -0.91628277
4.656302 23.444231 -0.93554306
-3.6671739 23.986181 -0.91557068
3.4171371 23.893166 -0.94480586
3.329402 24.300346 -0.99134338
5.2031164 24.397526 -0.9039548
6.8510237 25.149101 -1.0187124
-5.4380612 25.463228 -0.905487
-5.4324436 25.505417 -0.90678614
-5.0054917 25.520962 -0.92431021
-2.164222 25.701595 -0.90776807
4.6318545 25.556219 -0.92096514
-3.8594718 26.005751 -0.95415449
-2.5478792 25.831343 -0.90425545
-2.1335878 26.096439 -0.93634528
-1.8883039 25.914007 -0.9419167
-2.7118454 26.21726 -0.93508577
-2.1218946 26.160667 -0.92070025
-4.970602 26.634485 -0.92585945
-2.779058 26.556583 -0.99440646
-2.0673158 26.630289 -0.92847151
-0.56154317 26.493605 -0.91717464
-3.1283431 26.944784 -0.94165212
-2.7893305 26.874115 -0.93370485
-1.9375834 26.894377 -0.98197311
-1.7266185 26.70466 -1.0067277
4.7722287 26.996393 -0.94524723
7.1535702 26.769056 -1.0136327
-3.6409683 27.167419 -0.97700214
-3.0702236 27.219625 -0.94680601
-2.7071962 27.006041 -0.96208388
-1.74503 27.051376 -0.94458026
-1.0150387 27.082569 -0.94108486
-0.7453748 27.054033 -1.0354631
4.9924374 27.244473 -0.92056966
5.3343749 27.178303 -1.0152274
-2.2766132 27.304379 -0.97173572
-0.66981363 27.519539 -0.98385084
4.161953 27.702303 -0.90977949
5.0606642 27.831104 -1.124627
1.437367 28.837105 -0.94315225
5.220974 29.213173 -0.99548137
-6.2141547 30.180309 -1.139323
6.2064371 30.182896 -0.93176079
-6.2078347 30.305231 -1.1010904
-5.082015 30.546772 -1.0846958
-3.5037329 30.492041 -1.0862645
-6.313735 30.787758 -1.0211756
-3.376389 30.729143 -1.0872142
-2.834141 30.716864 -1.1290605
-2.2272215 30.833023 -1.0639031
5.5619378 30.882734 -1.0202519
-4.6502008 31.018023 -1.1435699
-2.9883747 30.954149 -1.063931
5.6176648 31.158442 -0.91470665
-6.2841759 31.427687 -1.1927915
-0.77505386 31.369761 -1.040356
4.3589597 31.257961 -0.9152022
5.1884437 31.272739 -0.95081568
6.5342722 31.376324 -0.93554115
6.6484284 31.420607 -0.91224039
-3.5849726 31.67288 -1.1267276
6.486773 31.687962 -0.95958459
6.76933 31.649307 -0.91583806
-7.5928626 31.804539 -1.0741355
-6.1548872 32.056465 -1.130595
6.1171184 31.936481 -0.94544894
6.6251554 31.945919 -0.96035838
-4.723135 32.25444 -1.114574
-4.2551088 32.15062 -1.182879
6.6475744 32.102665 -0.90876776
-5.8805332 32.61438 -1.1954169
-4.6858416 32.540211 -1.1807468
6.0688477 32.417152 -0.90097398
6.3834028 32.73867 -1.0399812
-4.2336516 33.562035 -1.1290408
-3.8992443 33.452381 -1.0637995
6.2503448 33.896179 -0.95314741
6.8784213 33.783619 -1.0233737
-4.6022692 33.970303 -1.1440256
-2.4954407 34.186741 -1.1102617
6.2466784 34.011761 -1.0017413
7.5371399 34.149712 -0.99085969
6.2601485 34.314083 -0.90444988
6.3326936 34.441788 -1.0080781
5.1265969 34.575092 -0.94467354
5.9845119 34.57114 -0.95618415
6.4035044 34.588932 -0.90272641
6.9818397 34.74762 -1.0676529
6.1429973 35.28548 -0.91253299
7.0840516 35.246376 -0.96662694
6.3802881 35.42366 -0.93313128
-53.920692 35.845703 -0.91392606
-4.429791 36.119202 -1.1607639
5.0549254 36.050869 -0.94515646
6.1687756 36.133636 -0.90547776
5.8197975 36.313419 -0.9316299
7.1280713 36.431572 -0.96301752
-48.030247 36.742363 -0.90318412
5.6378961 36.823116 -0.93251431
6.3547516 36.735477 -0.92441398
7.4541292 36.717266 -0.90956664
7.6535912 36.820026 -1.1271825
8.1185551 36.63007 -0.96119833
6.6358366 36.909924 -0.96480328
-37.976131 37.463654 -0.93575269
6.520309 38.174202 -0.95324945
6.6261253 38.113964 -1.0353683
7.2720008 38.387928 -1.0009471
4.6048985 38.65403 -0.9067297
7.3326993 38.556236 -1.0784441
7.7529054 38.601784 -0.92864585
-55.777817 38.749691 -0.94372183
4.7084045 38.774529 -0.93546152
5.2198515 38.996937 -0.9056198
7.124876 38.839752 -1.0603446
7.7629089 38.759201 -0.91735876
5.7694993 39.095581 -0.92693979
6.5244236 39.216225 -1.1943974
6.6106009 39.181084 -1.0176836
7.1928806 39.246502 -1.1392169
6.9224019 39.596504 -1.1819495
7.2268124 39.388248 -1.0442297
7.6200242 39.430214 -0.97524357
8.0236549 39.572723 -1.1789294
5.9144931 39.778786 -0.99654126
6.4685183 39.823067 -1.0720012
7.2362375 39.874935 -0.93594295
-38.337158 40.074062 -0.91225058
7.6451139 40.081017 -1.1734061
5.2977161 40.425125 -0.9115814
6.5146012 40.223503 -0.96773589
7.0946598 40.420345 -0.98638648
7.7778296 40.234524 -1.1185151
8.2152166 40.399883 -1.0908051
6.6083016 40.739635 -1.1884835
7.3194857 40.609386 -1.1994575
8.177083 40.582214 -1.1482582
6.5286202 40.931011 -1.1309971
6.6333847 40.970562 -1.0446913
7.3670244 40.94524 -0.97563875
7.514605 41.062523 -1.136866
6.4724951 41.246395 -1.1886237
7.562202 41.389091 -1.0278381
8.2216854 41.357685 -1.0774373
-71.326157 41.634727 -0.92290121
7.0272198 41.670242 -1.0369461
8.1376858 41.676735 -1.0704789
7.7786455 41.909195 -1.1095819
5.9248857 42.084297 -1.1337959
7.7201366 42.137215 -1.0237541
7.8124857 42.03442 -1.0636525
6.8743091 42.580772 -0.91190183
7.1089792 42.574406 -0.94990462
7.3977518 42.42498 -1.0167829
7.8845677 42.469486 -1.1856467
8.9793034 42.361679 -1.1602806
7.1719689 42.800507 -0.98943889
7.2420473 42.701889 -0.94119358
7.6807218 42.736919 -1.1735218
8.0226231 42.787262 -1.1331526
-80.14798 42.99382 -0.97173411
7.0778971 43.063797 -1.1946189
7.341229 43.022923 -0.97946852
7.2521553 43.240921 -1.0974133
8.7126265 43.499798 -1.176985
-22.392414 43.752415 -0.93816942
7.3053546 43.649544 -1.1751717
6.9657612 43.996456 -1.1710308
7.2395921 43.878166 -1.0581098
8.5299253 44.071098 -0.95441663
8.1105185 44.259499 -1.0377322
8.4749956 44.139 -1.1338288
-91.407326 44.437405 -1.035054
-90.615982 44.664505 -1.0123154
7.9534245 44.784897 -1.1628487
8.5822439 44.89764 -1.1578676
8.6823931 45.141811 -1.0080428
9.3021536 45.269276 -0.97830272
8.3055878 45.519054 -1.011634
8.9893475 45.462559 -0.93387502
9.3792887 45.482044 -1.0609279
-91.280449 45.63483 -0.9449935
8.2687998 45.700825 -1.0725083
8.7782221 45.677643 -0.97197199
-89.809807 45.950897 -1.0363967
-80.950195 46.098671 -1.1337231
7.064558 46.140339 -1.1112502
7.4196444 45.966221 -1.0487754
8.3480539 46.134937 -0.9933852
8.9685545 45.95417 -1.0280768
-90.306381 46.466244 -1.1622906
-79.329773 46.439693 -0.97655404
-67.806396 46.315804 -0.94344896
-65.629837 46.308716 -1.1458688
-91.231514 46.645584 -0.90177035
-91.091721 46.606823 -0.96879774
-77.302925 46.770393 -1.1987059
-68.561554 46.797417 -1.0824331
-67.360138 46.781715 -1.0225827
7.1666212 46.793621 -0.98688114
7.8189764 46.663773 -0.99650902
-77.696289 46.898323 -1.0574961
-75.56871 47.084297 -1.0293424
-68.481544 46.86393 -0.95105201
-41.398781 46.854843 -0.9250831
-35.097393 46.904686 -0.96917135
-19.675528 46.994389 -0.94429213
7.1828218 46.968548 -0.95058322
8.974268 46.900417 -0.98821032
9.1369333 46.991768 -1.0319149
9.8012838 47.00415 -1.0772141
-90.133194 47.293148 -1.1618611
-80.638176 47.19109 -1.0799561
-69.023285 47.252174 -0.97113544
-67.024925 47.331772 -0.95479625
-35.655674 47.290367 -1.0698903
-32.772923 47.382271 -0.96660256
-24.304449 47.246597 -0.96457839
7.7204289 47.164631 -0.97951347
8.3416681 47.392342 -1.1977103
8.5505362 47.30262 -0.98157209
8.914566 47.344902 -1.1382129
9.2804108 47.285358 -0.9960736
-83.388145 47.442059 -0.90945339
-24.458702 47.648521 -1.0595537
-17.068016 47.572269 -0.93385494
-6.5101581 47.551014 -0.97105086
7.6695733 47.534351 -1.1501019
8.0484562 47.553822 -0.95133036
9.4802513 47.478119 -1.0602558
-71.594528 47.925983 -1.0133804
-67.802307 47.801037 -0.95816827
-66.442085 47.760605 -0.95242995
-25.07408 47.823051 -1.0462666
7.4977646 47.732662 -1.1931427
7.7459664 47.714474 -1.0938064
8.0882196 47.932007 -1.0156982
8.1312447 47.711491 -1.0609057
8.645031 47.840046 -1.0780933
8.7794371 47.747772 -1.0400715
-76.10305 48.29744 -1.1517699
-72.485855 48.026104 -1.1063832
-68.333023 48.138908 -0.91422784
-67.132858 48.200115 -0.93734646
-36.058525 48.036358 -0.91668385
-17.137257 48.218498 -0.95109904
7.6898885 48.092674 -0.91750288
7.9739518 48.089638 -1.1477855
8.4856339 48.186661 -1.1149541
8.7704744 48.128815 -1.1195902
9.0924826 48.257263 -1.1639925
9.54844 48.262115 -1.0543311
-91.170853 48.516624 -1.1273372
-83.586212 48.583454 -1.0370108
-68.951797 48.56572 -0.92345971
-64.578568 48.353069 -0.94879335
-61.806152 48.510483 -0.99503064
-61.791851 48.365704 -0.94914532
-61.334454 48.385044 -0.98215687
-19.661982 48.391487 -1.0379472
7.1252761 48.585003 -1.084
7.9579968 48.448757 -1.002509
8.5991888 48.329731 -1.0667243
8.9102268 48.410126 -1.1650542
9.0814409 48.435093 -1.0674075
9.5466576 48.343941 -1.1150291
-83.486122 48.660675 -1.0349191
-83.383598 48.621819 -0.98614556
-78.89978 48.746944 -1.1928173
-76.453148 48.702126 -0.92169911
-72.038506 48.648144 -0.96653229
-71.316284 48.831566 -0.99130493
-68.730637 48.706047 -0.99315512
-68.682388 48.759029 -1.0027689
-66.614502 48.896259 -1.0988197
-16.043102 48.647854 -0.91865307
7.0959187 48.740051 -1.1531817
8.3093576 48.845127 -0.94932628
8.6881161 48.742542 -0.97342294
8.9329386 48.636284 -1.056945
9.7725143 48.64016 -1.0552708
-91.982597 49.003731 -1.070147
-69.778717 49.046009 -1.0444132
-68.744072 49.085915 -0.90097004
-68.692917 49.087948 -0.90317726
-65.736038 49.015991 -0.9687044
-23.004002 49.174553 -0.94801021
-16.052378 49.035381 -0.92594451
-3.4762247 48.977779 -0.91300708
6.499269 49.193531 -1.1800714
8.0302391 49.135429 -0.91491532
8.1075926 49.079079 -1.0024755
8.5230923 49.059952 -0.98935348
8.7977791 48.981289 -1.0489368
-91.187119 49.426334 -1.021162
-90.417778 49.454834 -1.1980774
-75.969238 49.243286 -0.99160779
-69.742561 49.387222 -0.94206077
-67.604774 49.465965 -0.9719401
-67.338425 49.412109 -0.96401566
-64.315758 49.3932 -1.1070173
-63.111534 49.340847 -1.1564933
-62.716919 49.422592 -0.99066526
-24.497223 49.389164 -0.99521232
-8.2366295 49.306702 -0.96286649
-6.6703277 49.354939 -1.0003912
-2.8473754 49.221107 -1.0817676
6.5027409 49.225151 -1.1725597
8.5248566 49.323746 -1.1470068
8.9482155 49.269901 -1.0881227
9.1515942 49.32914 -1.1030972
9.5020761 49.459717 -1.0698925
-91.332428 49.791187 -1.1598098
-78.377922 49.755978 -1.1383786
-77.290474 49.755436 -1.0858479
-76.522865 49.552063 -1.0543594
-70.863213 49.631851 -0.95232499
-69.659546 49.769855 -0.92432034
-69.07338 49.644543 -0.94351876
-68.188202 49.631508 -1.053709
-66.505371 49.729641 -1.0032558
-39.663269 49.5686 -0.94955331
-22.935669 49.659817 -0.98771918
-19.65947 49.512753 -1.054388
-4.5044208 49.727097 -0.96048141
7.4499545 49.63876 -0.92864603
7.6218448 49.573246 -1.0663203
8.3248215 49.752346 -0.96978056
8.6119194 49.523403 -1.0125674
8.7083998 49.796528 -1.0334027
9.1298609 49.617085 -0.9351685
9.378006 49.685658 -1.0725977
10.077672 49.585625 -0.99802887
-92.220795 49.963112 -1.1365416
-83.823196 49.976131 -1.1484424
-83.49115 49.974037 -1.1938658
-71.533813 50.024193 -0.95582509
-70.609962 49.801804 -0.95645797
-69.037674 49.962727 -0.94013488
-68.729393 49.962147 -0.98289645
-35.039349 50.020966 -0.93759596
-19.751789 50.066601 -1.1546443
-8.4062958 49.911396 -1.007912
-2.8428473 50.056107 -1.1239418
7.9794807 50.039993 -1.0696076
8.2914896 49.858494 -1.1445489
8.4734116 50.022655 -0.94790965
8.7137165 49.839657 -1.023896
9.3476467 50.009201 -0.94000459
10.028766 50.039684 -0.9971413
10.65762 49.877274 -0.96425843
-92.232574 50.157494 -1.0868772
-91.3675 50.306618 -1.1374692
-78.800026 50.268669 -1.0196569
-64.23465 50.238628 -0.9694832
-41.367798 50.332428 -0.90275985
7.1370373 50.355331 -1.0550271
7.4712758 50.137356 -0.97879672
7.6283011 50.367432 -0.9858501
8.5632734 50.256054 -1.0512893
8.910861 50.128792 -0.90622091
-77.150993 50.672276 -1.1664917
-76.96199 50.688675 -1.0145682
-72.564888 50.497894 -1.1336462
-71.454704 50.658916 -1.0991153
-70.543907 50.560143 -0.98757899
-66.050804 50.543514 -1.0583829
-63.255604 50.561092 -0.91603905
-36.214539 50.587883 -0.90995914
-21.150776 50.632751 -0.96231204
-19.612267 50.602982 -1.0876496
-19.027205 50.623932 -0.98535699
-2.8408463 50.608448 -1.0213553
-2.6366858 50.56572 -1.0958675
7.5101171 50.435863 -1.0088875
8.9138727 50.423809 -0.98540932
9.2920303 50.468517 -0.98541307
9.4749222 50.649483 -1.0992188
9.9195576 50.640106 -1.1578101
10.80129 50.655144 -1.0969818
-91.49527 50.91959 -1.1197506
-79.316711 50.92841 -0.98667753
-77.268021 50.928131 -1.0591774
-74.512497 50.75087 -0.98574322
-74.356644 50.71664 -1.1338246
-70.713982 50.790405 -0.95462787
-70.148926 50.897064 -1.0182282
-24.632833 50.868073 -0.93779618
-24.473644 50.895741 -0.94939637
-21.237938 50.761227 -1.0630782
-19.666828 50.856285 -1.0672044
6.9742537 50.895206 -1.14571
7.43292 50.756233 -1.1956955
10.817042 50.710068 -1.1166048
-84.106606 51.132229 -1.0417788
-77.458183 51.141117 -1.0138813
-70.951012 51.224453 -0.97914261
-70.210953 51.180252 -0.90749335
-69.602127 51.097637 -0.9368574
-67.97644 51.196514 -1.0500596
-65.875877 51.068954 -0.9691968
-24.507156 51.062321 -0.96724576
-19.827383 51.193714 -1.0489422
-19.742895 51.09259 -0.97996056
-8.3433094 51.031078 -0.9791069
-1.0143822 51.192692 -1.1266501
6.5637503 51.138763 -0.90099251
7.8194013 51.23716 -1.0130613
8.5197229 51.205921 -1.0305567
8.8000364 51.178596 -1.0961828
9.1376286 51.138672 -1.1454996
9.393939 51.071648 -1.0844102
9.8873558 51.082905 -1.147403
-80.571434 51.337543 -0.97921604
-79.314514 51.383297 -0.92286026
-71.357658 51.375565 -0.92907548
-70.771988 51.341934 -1.0185297
-70.459938 51.577454 -0.94526154
-70.048912 51.320618 -0.9276849
-69.430115 51.490601 -0.92644042
-69.005547 51.343193 -0.91335315
-64.841812 51.348392 -0.91188198
-63.472488 51.31599 -1.041741
-24.601027 51.508739 -0.92317826
-19.949364 51.411667 -0.93660265
-0.65415943 51.36327 -0.99723303
7.0249867 51.342266 -1.171329
8.0359068 51.496048 -0.90334946
8.8439636 51.46349 -1.0106047
9.2194757 51.595371 -1.1699158
9.57481 51.424454 -1.073561
9.6037989 51.442482 -0.95739067
11.536824 51.598785 -1.0629609
-75.486908 51.853687 -1.0752293
-75.233894 51.628349 -1.1077359
-71.063171 51.707298 -0.95247424
-70.731911 51.897327 -0.90130687
-70.342834 51.771423 -1.025001
-69.359459 51.781738 -0.96572334
-68.562943 51.774208 -1.025676
-68.117416 51.802891 -1.0457511
-33.299557 51.816212 -0.93500257
-22.834869 51.67672 -1.0281179
-19.913696 51.886051 -1.0734105
-8.9808893 51.740723 -0.93826354
7.1936626 51.860905 -1.1606708
8.6385059 51.76717 -0.98884767
9.4136105 51.801487 -1.041042
9.6596861 51.717415 -0.94677049
10.613652 51.738464 -1.019134
10.959723 51.848125 -0.90208703
11.561074 51.651718 -1.031091
-71.189804 52.101311 -1.1564686
-70.755875 51.904816 -1.1013997
-69.311447 52.126709 -1.0093913
-66.435738 52.030025 -0.94503665
-22.874952 51.92754 -0.90858299
-19.81612 51.909409 -1.0336745
-8.7724438 51.944023 -0.92696363
-7.3163958 51.938866 -1.0145252
-2.5692856 51.915287 -0.92676908
-0.80026168 52.037556 -1.1065329
-0.38940096 52.13488 -1.1619098
8.9790802 51.965096 -0.94778109
9.0127497 52.017094 -1.0547459
9.4758568 52.025105 -1.0674601
9.7554398 52.033569 -1.1122736
10.087547 52.06601 -0.96852547
11.06121 51.94664 -1.0191278
-92.045868 52.422455 -1.0780528
-82.951721 52.298115 -0.92467833
-69.311844 52.298996 -0.96641088
